# .PCD v0.7 - Point Cloud Data file format
VERSION 0.7
FIELDS x y z intensity
SIZE 4 4 4 4
TYPE F F F F
COUNT 1 1 1 1
WIDTH 1466
HEIGHT 1
VIEWPOINT 0 0 0 1 0 0 0
POINTS 1466
DATA ascii
-3.9344954 6.1787238 5.1445184 0
-3.9236965 6.4409275 5.1785612 0
-3.9239969 6.8583527 5.0086002 0
24.907846 6.8802805 5.1417279 0
-0.24657862 7.1786451 5.1074486 0
-0.12192559 7.1886964 5.0721035 0
7.3068075 7.1816683 5.1165242 0
7.6611881 7.1783299 5.115623 0
14.840829 7.1800327 5.1110201 0
15.196624 7.1741691 5.1640353 0
15.212013 7.166944 5.0649672 0
0.0075125694 7.3174481 5.1454449 0
0.20860302 7.3063989 5.1397877 0
7.6492963 7.2859163 5.0941868 0
14.737635 7.3816938 5.0151424 0
15.084896 7.2470379 5.1854219 0
24.899063 8.1458244 5.0449624 0
24.897259 8.6923351 5.1902294 0
24.895061 9.2672167 5.0842404 0
24.894514 10.020433 5.095274 0
24.887783 10.370157 5.100503 0
24.897387 10.772709 5.1735921 0
24.901405 11.105322 5.0816989 0
24.887474 11.461594 5.1484156 0
24.889671 12.097889 5.1495399 0
-3.4182091 14.902566 5.1349049 0
-3.2548628 14.914464 5.1126018 0
-2.2830324 14.902026 5.064971 0
-1.136673 14.903731 5.084455 0
8.3716793 14.897203 5.0520935 0
9.8999681 14.897022 5.1171794 0
13.629129 14.901187 5.0414805 0
14.925729 14.901477 5.0417957 0
15.94482 14.907091 5.1024857 0
16.924397 14.902777 5.1008911 0
17.318314 14.908936 5.0415645 0
18.255922 14.913361 5.1675911 0
21.816792 14.898167 5.1816502 0
22.261095 14.90459 5.183023 0
-2.5197124 -14.897081 5.2220626 0
19.594589 -12.872699 5.2410612 0
6.4754734 -12.609923 5.206121 0
6.2789612 -12.494146 5.2966113 0
6.4705143 -12.463766 5.2292175 0
9.1304455 -12.571916 5.3740578 0
9.5254459 -12.593721 5.362257 0
9.9754906 -12.535123 5.2123013 0
10.05604 -12.525186 5.2106371 0
10.244882 -12.534336 5.2440677 0
23.43684 -12.502545 5.3595514 0
15.275617 -12.381736 5.2874551 0
24.895021 -9.839365 5.3117332 0
24.895536 -9.238019 5.2749214 0
24.894241 -9.1208124 5.3284726 0
14.71284 -7.6932034 5.3007545 0
7.2575507 -7.4181342 5.2762127 0
0.23735809 -7.2939758 5.3045883 0
7.3008728 -7.2819204 5.3377104 0
7.7253551 -7.204278 5.2164364 0
-0.23494235 -7.1807728 5.2876015 0
-0.18184972 -7.1743779 5.2124171 0
0.17925525 -7.1697469 5.2965703 0
0.22401148 -7.1709886 5.3027706 0
7.3449621 -7.1787038 5.3497801 0
7.65558 -7.1785402 5.3043671 0
14.786417 -7.1799603 5.3613572 0
15.149743 -7.1828551 5.2960792 0
15.214684 -7.1748552 5.3326421 0
24.902643 -6.9264126 5.3504667 0
-3.9189644 -6.5220952 5.240345 0
-3.9396911 -6.2404895 5.3169861 0
-3.9151845 -5.5011768 5.3191319 0
-3.920764 -5.3859348 5.2445621 0
-5.3425603 -4.812326 5.3454843 0
-4.2874622 -4.8469477 5.3251352 0
-3.9312806 -4.9780979 5.2673044 0
-5.8921666 -4.7728934 5.3277283 0
-4.4414001 -4.7599311 5.3363032 0
-3.935977 -4.6896043 5.288053 0
-8.6005125 -4.5827374 5.2990446 0
-3.9363849 -1.1037521 5.3240747 0
-3.9316611 -0.50716031 5.2670598 0
-4.2371683 0.71456653 5.373672 0
-3.9363108 0.96775651 5.341567 0
-3.9347405 1.0080302 5.3105125 0
-4.0804796 4.7759967 5.2074337 0
-5.4744849 4.9319644 5.2554045 0
-5.3365555 4.9411917 5.3246994 0
-4.0539632 4.8127232 5.3011127 0
-3.9590349 4.8704467 5.2451968 0
-3.9105606 6.4791141 5.2064242 0
24.902693 6.9262552 5.3504677 0
-0.24934851 7.175096 5.3047032 0
-0.12110806 7.1869149 5.2744603 0
7.2784939 7.1669407 5.3336143 0
7.6516476 7.1721945 5.300941 0
14.83866 7.1787019 5.3642836 0
15.189937 7.1759109 5.3449202 0
7.6832814 7.2680812 5.3119335 0
15.113595 7.2004523 5.3380384 0
0.25183678 7.4626393 5.3016238 0
7.2575994 7.4180899 5.2762141 0
24.897715 8.9539824 5.2819371 0
24.893267 9.2672968 5.3987732 0
24.892918 10.392527 5.3762021 0
24.899273 11.416381 5.2444191 0
-2.2803421 14.900229 5.3959227 0
0.22930813 14.905467 5.2047606 0
9.0770779 14.903754 5.2443352 0
13.63047 14.904537 5.3547997 0
14.930936 14.905581 5.3551035 0
17.31945 14.909586 5.3637781 0
-8.3534336 -14.892397 5.4185843 0
-7.8179483 -14.902515 5.5133224 0
-3.5936213 -14.894161 5.4798751 0
-2.5187292 -14.894146 5.5527163 0
-1.4320478 -14.892618 5.5261421 0
-0.14342976 -14.891743 5.4080167 0
6.2796326 -12.497035 5.5287924 0
6.466783 -12.439096 5.4801984 0
9.9090385 -12.562015 5.4397516 0
10.244794 -12.531483 5.4650912 0
10.714586 -12.411121 5.5790186 0
19.666765 -12.492046 5.4849081 0
19.968971 -12.578734 5.4503374 0
15.27515 -12.379853 5.5259037 0
24.894924 -10.938663 5.5805655 0
24.892059 -9.927022 5.480773 0
24.901184 -8.647706 5.4157243 0
24.905205 -8.1806383 5.5483513 0
-0.055904388 -7.3156643 5.5074759 0
0.2349689 -7.2962828 5.5269384 0
7.2967925 -7.2584763 5.4640231 0
7.566833 -7.2949138 5.488822 0
15.005035 -7.3052111 5.4451299 0
-0.23436984 -7.1648035 5.4975462 0
-0.16065818 -7.1760774 5.5162401 0
0.23333746 -7.1788101 5.4945469 0
7.3215933 -7.1725512 5.5072289 0
7.676661 -7.1796942 5.4996724 0
15.155095 -7.175199 5.516171 0
15.21385 -7.1742582 5.5503793 0
-5.3352656 -4.8072591 5.5082798 0
-4.2864876 -4.8456168 5.5909877 0
-5.8782973 -4.7630248 5.5361085 0
-4.0246468 -4.6249108 5.4847383 0
-3.9359531 -4.6897931 5.5378699 0
-8.6109667 -4.5887003 5.4764066 0
-3.9393044 -1.1241717 5.5290999 0
-5.0794597 -0.99487627 5.4942169 0
-5.0706577 -0.45280471 5.5421133 0
-4.2472491 0.48988864 5.5399141 0
-4.2339449 0.71511734 5.5456276 0
-3.9387403 0.9680739 5.5112839 0
-3.9326549 1.0087764 5.5346003 0
-5.4763045 4.9351315 5.5855923 0
-5.3332205 4.944592 5.5448294 0
-4.0549359 4.8124204 5.5349455 0
-3.9415174 4.8873663 5.5365834 0
-3.9265022 6.8637471 5.4989386 0
-0.2493469 7.1786046 5.5196047 0
-0.1198523 7.1836991 5.4773664 0
0.11142063 7.1654434 5.5842533 0
0.22626209 7.1916256 5.5858259 0
7.3054724 7.1691313 5.5135946 0
7.650538 7.1740866 5.5346174 0
14.781888 7.182076 5.4976306 0
14.841339 7.1827626 5.5342369 0
15.184113 7.1767802 5.5432138 0
0.032648683 7.3156161 5.4261537 0
7.4004683 7.3099957 5.5190458 0
7.698236 7.2451043 5.5133471 0
15.117063 7.2059259 5.561976 0
24.904377 8.1466208 5.4170551 0
24.905025 8.69736 5.5877247 0
24.892633 10.020994 5.4335675 0
24.895376 10.771552 5.5355277 0
24.904575 11.105098 5.4773564 0
24.884344 11.457389 5.4514351 0
24.886513 12.095119 5.4843435 0
-3.4162798 14.900278 5.4660091 0
-3.2541704 14.91263 5.4319286 0
-1.1343832 14.90179 5.4153447 0
0.23034668 14.902709 5.535553 0
8.3801308 14.902786 5.4506922 0
9.0797701 14.9067 5.4175973 0
9.9017439 14.90093 5.4273586 0
15.944642 14.908162 5.427599 0
18.253662 14.910876 5.5043211 0
21.820633 14.90291 5.4975371 0
22.954929 14.901766 5.5466924 0
-8.3482018 -14.888111 5.7521892 0
-5.0555081 -14.905203 5.7469816 0
-4.8462491 -14.935637 5.7742958 0
-2.4161921 -14.898814 5.7680202 0
-0.13895512 -14.887423 5.7390532 0
6.9049459 -12.570033 5.7093649 0
7.0045042 -12.535871 5.7966471 0
10.695877 -12.508781 5.6674228 0
10.886843 -12.414854 5.6850405 0
13.861028 -12.578335 5.7998953 0
20.210253 -12.545135 5.7218313 0
23.437187 -12.504169 5.6691961 0
24.888123 -9.9232836 5.7996716 0
24.903297 -9.2396002 5.6751814 0
24.890728 -9.1197195 5.619668 0
24.899143 -8.6455879 5.7904682 0
0.23127604 -7.3051205 5.7401342 0
7.3359404 -7.2545338 5.6982942 0
7.4018044 -7.3010869 5.6110163 0
7.719974 -7.2002492 5.693399 0
-0.23437573 -7.169836 5.7221651 0
-0.15374577 -7.182158 5.7413301 0
0.2232282 -7.1679978 5.6524482 0
7.3152661 -7.1698456 5.7076507 0
7.663836 -7.1754327 5.7239356 0
14.760834 -7.1672239 5.6728334 0
15.135894 -7.1773968 5.7168813 0
15.211176 -7.1701317 5.6957097 0
-5.3410778 -4.8095627 5.6721668 0
-5.8778243 -4.761282 5.708251 0
-8.621891 -4.5894413 5.643868 0
-3.9312973 -1.0731378 5.6799879 0
-5.0767598 -0.99348092 5.74857 0
-5.0696735 -0.46842489 5.7289333 0
-4.2373533 0.48838443 5.6649475 0
-4.2295289 0.71552944 5.7183943 0
-3.9288626 0.98732001 5.6523857 0
-5.5277119 4.9421659 5.6923018 0
-5.3170629 4.9462624 5.6901398 0
-4.2472281 6.5295649 5.6788502 0
-4.2641497 6.7467875 5.6906161 0
-3.938241 6.8383851 5.6422668 0
-0.25395748 7.1726127 5.7100577 0
-0.15066051 7.1731501 5.7184753 0
0.10895586 7.170362 5.7487202 0
0.23043156 7.1865735 5.7593017 0
7.2760892 7.1711679 5.7342224 0
7.6578827 7.1715956 5.7170424 0
14.766871 7.178937 5.697629 0
14.837261 7.1787248 5.7037516 0
15.187907 7.1841688 5.7313418 0
-0.12156904 7.2983713 5.6953049 0
7.3926568 7.3035164 5.6918592 0
7.6990952 7.2472725 5.704515 0
15.114745 7.2005386 5.785769 0
24.90234 8.1442776 5.7893829 0
24.905397 8.9547024 5.7005157 0
24.889336 9.2660389 5.7135758 0
24.888462 10.020116 5.7721519 0
24.885883 10.403657 5.6519623 0
24.891891 11.436729 5.6913977 0
-2.2614508 14.900616 5.741467 0
-1.1303444 14.897464 5.7464414 0
4.776473 14.95707 5.7797852 0
4.8145742 14.93437 5.6587105 0
5.2290058 14.938867 5.7995324 0
5.5152164 14.923799 5.7667732 0
7.0869312 14.964055 5.6663842 0
8.0530901 14.938685 5.7787004 0
9.072855 14.895473 5.7339096 0
11.591578 14.948628 5.6495657 0
12.787186 14.937901 5.649344 0
13.627832 14.901473 5.6682558 0
13.973695 14.935145 5.6525049 0
14.931458 14.902119 5.6685648 0
15.945284 14.909519 5.7532544 0
17.322369 14.911702 5.6866183 0
-3.6071672 -14.961488 5.8959289 0
-1.429101 -14.887477 5.8571248 0
-1.3402786 -14.898681 5.8410773 0
4.8209233 -14.951613 5.9198427 0
15.195134 -14.932761 5.9621534 0
9.020525 -12.556922 5.8078566 0
24.887766 -12.397679 5.9946527 0
24.891912 -11.30254 5.8930879 0
24.885769 -10.593299 5.8937798 0
24.902639 -8.179863 5.9036098 0
0.219491 -7.2065125 5.8423223 0
7.3480473 -7.2370491 5.9272966 0
14.75803 -7.2056971 5.8079209 0
-0.23511377 -7.1642265 5.8993692 0
-0.15009364 -7.1786933 5.9310508 0
0.22483237 -7.1767311 5.8914084 0
7.3149362 -7.1702409 5.9305496 0
7.6710486 -7.1784492 5.910542 0
15.136221 -7.180439 5.9296713 0
15.213864 -7.1757393 5.9168768 0
24.882874 -6.9209132 5.8260884 0
24.882921 6.9207563 5.8260899 0
-0.24953727 7.1747522 5.8923903 0
-0.15135992 7.1751966 5.9304018 0
0.2263546 7.1908407 5.9349155 0
7.2509823 7.1746922 5.9120274 0
7.624825 7.1808715 5.9596419 0
14.751552 7.1744342 5.898468 0
14.8412 7.1843047 5.8753586 0
15.141981 7.1902943 5.9216352 0
-0.14859581 7.2892923 5.9238091 0
0.21740866 7.2304988 5.8507376 0
7.2668419 7.2369351 5.8705034 0
7.5580149 7.3096752 5.9169674 0
7.6875248 7.235662 5.870079 0
0.26518202 7.5038457 5.9357376 0
7.7158537 7.4165874 5.871161 0
24.902336 8.6979256 5.9854579 0
24.892666 10.427698 5.9300013 0
24.890911 10.768849 5.8977661 0
24.900871 11.100877 5.8731942 0
24.890678 12.098566 5.8201246 0
0.23312855 14.897558 5.8666134 0
4.0926013 14.967585 5.9090815 0
4.3581476 14.930307 5.9175215 0
4.7116728 14.965025 5.8718843 0
4.8168063 14.949225 5.9294868 0
15.098072 14.971133 5.872519 0
15.217164 14.93566 5.9780717 0
17.358789 14.899488 5.9475203 0
18.258598 14.917697 5.8422232 0
21.819134 14.899151 5.8135176 0
22.931269 14.899545 5.8614178 0
-4.8579655 -14.956188 6.0770569 0
-4.2775378 -14.958765 6.0158882 0
-3.8879209 -14.942163 6.1807604 0
-2.4221535 -14.907575 6.0885029 0
-1.4355726 -14.89463 6.1899495 0
-1.3477745 -14.908072 6.1619444 0
-0.14251232 -14.893552 6.0715752 0
3.8761084 -14.940663 6.1500134 0
4.5518956 -14.93906 6.108798 0
4.7989998 -14.96066 6.0295382 0
15.016517 -14.940017 6.0117545 0
16.192581 -14.948201 6.1086617 0
17.607201 -14.893188 6.1014476 0
17.823807 -14.910753 6.1354952 0
22.198746 -14.908362 6.0509338 0
24.885416 -11.901514 6.011682 0
24.882515 -11.738298 6.0256653 0
24.882259 -11.353497 6.1509042 0
24.945877 -10.10237 6.1730852 0
24.90061 -9.2365246 6.0756397 0
24.89444 -9.1927748 6.0861044 0
7.2488017 -7.4483461 6.1120567 0
7.3356428 -7.2571282 6.1414614 0
7.4863968 -7.2949824 6.0946817 0
-0.22320694 -7.1722364 6.1458945 0
-0.15099232 -7.1793327 6.1447296 0
0.23334676 -7.173193 6.0945511 0
7.3454862 -7.1786861 6.1340604 0
7.6572289 -7.1812692 6.1046648 0
15.139287 -7.1739569 6.0928144 0
15.208447 -7.1670852 6.1370554 0
24.950024 -5.9040236 6.1498709 0
24.889017 -4.6261315 6.1846986 0
24.889051 4.6259732 6.1846995 0
-0.25452864 7.1778741 6.1333885 0
-0.15052569 7.1723933 6.1432915 0
0.11044741 7.1718202 6.0788078 0
0.22104168 7.1965032 6.1118555 0
7.2951927 7.1817827 6.1343179 0
7.6820273 7.1713591 6.119298 0
14.744262 7.1895456 6.0366006 0
15.188674 7.1753221 6.1062279 0
-0.14508629 7.2843499 6.0798016 0
7.7241144 7.235342 6.0323038 0
15.117329 7.2036362 6.1645927 0
7.2518177 7.4154749 6.0449104 0
24.959894 7.706727 6.1090717 0
24.898129 8.1410046 6.1621656 0
24.941484 8.5235691 6.1092715 0
24.894876 9.2554722 6.0844884 0
24.891457 11.060575 6.0368428 0
24.892061 11.412154 6.010952 0
24.884418 12.093141 6.1557441 0
-3.699924 14.963593 6.1653962 0
-2.2791929 14.902393 6.0596747 0
-1.1342993 14.904038 6.0790648 0
0.22659397 14.90516 6.1995625 0
3.5367017 14.976402 6.1749763 0
4.313889 14.937425 6.0652051 0
4.7389488 14.961085 6.112639 0
4.8171673 14.94706 6.1998525 0
15.095503 14.966401 6.1642733 0
15.269487 14.929124 6.0198321 0
16.417559 14.935505 6.112627 0
17.724991 14.935946 6.0913725 0
18.254349 14.912645 6.179966 0
21.816319 14.893293 6.1298885 0
22.911915 14.904263 6.1770973 0
-4.8487034 -14.960129 6.3424015 0
-4.5743742 -14.96742 6.349597 0
-1.6501598 -14.893209 6.3139086 0
-0.63261604 -14.892427 6.241457 0
0.37246513 -14.89496 6.2691379 0
1.4505615 -14.894956 6.3424158 0
2.5421896 -14.893207 6.3165188 0
3.7671492 -14.932331 6.3976169 0
4.3150854 -14.940028 6.2782111 0
4.5571947 -14.943021 6.3236985 0
15.014872 -14.934429 6.2994385 0
15.23547 -14.975914 6.3066363 0
15.479822 -14.905591 6.2509913 0
16.190327 -14.942551 6.3884449 0
17.224731 -14.922022 6.3834643 0
21.08927 -14.905169 6.2610884 0
22.163242 -14.900141 6.3364887 0
24.890247 -10.744093 6.2395544 0
24.898682 -10.42883 6.2511048 0
24.892622 -9.809844 6.2000222 0
24.894203 -9.124445 6.2049198 0
24.967144 -8.5955944 6.2781668 0
24.928892 -7.4712219 6.3106189 0
7.3391647 -7.2513356 6.2895212 0
7.4814386 -7.2955742 6.2815027 0
15.109448 -7.2818928 6.2964621 0
-0.2224161 -7.1648507 6.3462381 0
-0.14842884 -7.1751556 6.3069091 0
0.22551446 -7.1799102 6.2745018 0
7.3164744 -7.1817784 6.31987 0
7.6692333 -7.1761508 6.3003449 0
15.133137 -7.1750422 6.3207016 0
15.224303 -7.164938 6.3863125 0
24.902704 -7.1920142 6.2805634 0
24.94285 -6.1388116 6.3855925 0
24.951122 6.6602068 6.3395033 0
-0.25435156 7.1805511 6.3261037 0
-0.15116692 7.1763687 6.3227177 0
0.11687469 7.1651206 6.2435513 0
7.3063335 7.1800365 6.2910061 0
7.6755185 7.1700463 6.3389859 0
14.84874 7.1811314 6.2798223 0
15.140802 7.1884594 6.3549366 0
15.200231 7.1781902 6.3739362 0
-0.14956856 7.2929449 6.3188925 0
7.3106976 7.2029119 6.34517 0
24.952425 7.2813954 6.3319707 0
24.915913 7.4675422 6.3480415 0
24.90868 7.7343922 6.2209158 0
24.930109 8.5190163 6.2855482 0
24.945848 9.2666206 6.2224646 0
24.897911 9.9484196 6.2279 0
24.882818 10.436326 6.2073374 0
24.894543 11.095133 6.2693987 0
-2.272893 14.895701 6.391912 0
4.2930136 14.960702 6.2999897 0
4.7924476 14.955472 6.3181438 0
15.272474 14.932631 6.3344665 0
15.586309 15.005617 6.3013234 0
-3.8866658 -14.936687 6.461216 0
-2.4180374 -14.901517 6.408515 0
-1.4307261 -14.887001 6.5222197 0
-0.13613129 -14.886757 6.4037123 0
4.5434961 -14.952295 6.499177 0
4.704813 -14.957585 6.4479842 0
4.8295259 -14.941441 6.4807153 0
15.136587 -14.98505 6.5085325 0
15.477718 -14.899073 6.5342598 0
17.615133 -14.904702 6.4113922 0
17.81765 -14.903307 6.4667168 0
18.813778 -14.900085 6.4624224 0
21.084513 -14.898378 6.5677538 0
22.108082 -14.893674 6.5973511 0
24.908024 -11.5478 6.549952 0
7.2591929 -7.2524204 6.4998817 0
15.094557 -7.2083511 6.5157566 0
24.9338 -7.3075471 6.4303451 0
-0.24362223 -7.1668692 6.5654659 0
-0.14789124 -7.1764727 6.5018935 0
0.22345348 -7.1769962 6.4543576 0
7.316874 -7.1866226 6.5426269 0
7.6836739 -7.1761246 6.5090261 0
15.148672 -7.1658282 6.5187807 0
15.21313 -7.1768236 6.514576 0
24.932961 -7.1207237 6.5368075 0
24.936836 -6.6958132 6.4567184 0
24.946955 -5.9009576 6.5707221 0
24.951601 -4.6110849 6.509346 0
24.95384 -4.2175803 6.4730725 0
24.906462 -4.1293964 6.5333996 0
24.947193 -3.8248992 6.4700556 0
24.96394 -3.7563746 6.4400086 0
24.949471 3.7609136 6.5691953 0
24.945377 3.9101014 6.5260372 0
24.94706 4.1383305 6.4648986 0
24.971022 5.9740515 6.4806824 0
-0.25319901 7.1720467 6.5164557 0
-0.15327311 7.1796031 6.5040936 0
0.11202383 7.1732049 6.4126058 0
0.22131538 7.1955042 6.4664545 0
7.3121796 7.1825552 6.5013285 0
7.682447 7.1692977 6.5285153 0
14.841843 7.1797404 6.513876 0
15.186138 7.1806149 6.5389118 0
-14.753906 7.3362603 6.5860572 0
-0.14224052 7.2821651 6.5557461 0
15.120438 7.2076917 6.5500431 0
24.946451 7.308825 6.5163455 0
24.948402 7.4393821 6.4905643 0
7.2357101 7.654264 6.5818214 0
24.946272 11.26922 6.4933634 0
24.927464 11.700749 6.5386124 0
-4.8858418 14.954856 6.4810543 0
-1.1284094 14.897195 6.4112911 0
0.23122311 14.897475 6.5319352 0
3.535996 14.996245 6.5793028 0
4.3689823 14.953238 6.4160643 0
4.743763 14.952801 6.5057859 0
4.8173919 14.943642 6.4709806 0
15.102127 14.983562 6.4594336 0
15.221851 14.944882 6.5818901 0
15.967508 14.906673 6.4279213 0
17.721491 14.927919 6.4350195 0
18.248186 14.90512 6.5181398 0
21.824585 14.905077 6.4490848 0
22.173504 14.904463 6.4175305 0
-4.8423619 -14.940996 6.7198634 0
-4.2843604 -14.983213 6.6014757 0
-3.6038637 -14.945598 6.7337952 0
-2.4123735 -14.893186 6.7290678 0
-0.14295197 -14.897144 6.7390747 0
4.2945814 -14.948202 6.7430654 0
4.5545588 -14.937258 6.6531553 0
4.6557651 -14.93863 6.6992936 0
15.265696 -14.964695 6.6241579 0
15.906958 -14.92008 6.6217728 0
18.821922 -14.910584 6.7968788 0
22.198841 -14.911165 6.7109056 0
24.943462 -11.730914 6.6835909 0
24.972368 -11.463669 6.6898017 0
24.930431 -7.5001569 6.6182461 0
7.2970972 -7.2615891 6.7244558 0
24.941662 -7.265779 6.7058983 0
-0.22435707 -7.1731262 6.7602539 0
-0.14745682 -7.1739993 6.7370319 0
0.22428991 -7.1781421 6.7537785 0
7.3244314 -7.1825686 6.7088723 0
7.6707292 -7.1753707 6.7198939 0
15.155092 -7.1793365 6.7017279 0
15.209093 -7.1752434 6.7016182 0
24.915768 -7.175735 6.7788315 0
24.969423 -6.7750492 6.788506 0
24.928854 -4.4993458 6.7645402 0
24.955582 -4.3138766 6.6417661 0
24.936619 -4.0357203 6.6731663 0
24.94261 -3.8815236 6.787878 0
24.939072 -3.7772546 6.633152 0
24.906326 -3.2882998 6.6122108 0
24.906353 3.288142 6.6122122 0
24.96637 3.708256 6.7646208 0
24.942093 3.9267168 6.6874156 0
24.928942 4.1059389 6.6223397 0
24.945358 6.660008 6.7267475 0
-14.885939 7.1313176 6.7320042 0
-0.25500152 7.1835494 6.7233233 0
-0.1159122 7.176352 6.7306728 0
7.3048191 7.184051 6.7136855 0
7.7012482 7.1698675 6.7040095 0
14.830408 7.1773987 6.7061954 0
15.159007 7.1799083 6.7232895 0
-0.12151432 7.3006372 6.6904659 0
0.055660009 7.3157697 6.7997437 0
0.20046902 7.3262396 6.7659979 0
7.247344 7.2850242 6.7924576 0
24.942362 7.3309722 6.6152148 0
24.936447 7.4553499 6.7211752 0
24.925041 11.281454 6.7746611 0
-4.5879455 14.998409 6.7695537 0
-2.2428207 14.899837 6.7196579 0
-1.1051245 14.900167 6.6487265 0
0.037446022 14.901713 6.6688628 0
3.8075902 14.931407 6.6839724 0
4.3672256 14.94643 6.6994963 0
4.7210245 14.949306 6.6388984 0
4.8174753 14.938919 6.7429738 0
15.099342 14.978322 6.7532806 0
15.204573 14.906093 6.6580153 0
16.076748 14.917621 6.6788931 0
21.82074 14.897567 6.7672229 0
15.625071 15.004169 6.7528105 0
-4.8399525 -14.933268 6.9254441 0
-1.4404545 -14.898396 6.8582087 0
-1.3395071 -14.892795 6.8030939 0
3.7511859 -14.938531 6.8253841 0
4.0092425 -14.945959 6.8883476 0
4.2909346 -14.939084 6.9706597 0
4.5618453 -14.927669 6.9076219 0
4.6432323 -14.90967 6.9194903 0
15.146257 -14.996716 6.8409328 0
15.25678 -14.971802 6.9212441 0
15.485823 -14.91951 6.822453 0
15.954287 -14.931756 6.9304686 0
16.194405 -14.956805 6.9548664 0
17.824905 -14.913684 6.8013496 0
20.400478 -14.896694 6.8311191 0
22.091084 -14.903791 6.9040365 0
24.947598 -11.499666 6.9298339 0
7.7164316 -7.4261479 6.8899059 0
24.936529 -7.4495268 6.8677149 0
-14.786705 -7.2775054 6.8038392 0
0.26717281 -7.3405399 6.8715754 0
7.3018141 -7.2594576 6.9068346 0
24.965698 -7.2333632 6.9626007 0
-15.167163 -7.0949349 6.9633956 0
-0.2445167 -7.1692276 6.9778314 0
-0.15122378 -7.1789293 6.8796453 0
0.23309222 -7.1585636 6.8816442 0
7.2573576 -7.1969471 6.9231973 0
7.6556602 -7.1790061 6.918263 0
15.152143 -7.1716561 6.8953118 0
15.205209 -7.1643968 6.893342 0
24.933456 -7.1221333 6.8638492 0
24.941763 -5.8973427 6.992445 0
24.925165 -4.6656628 6.9046779 0
24.949366 -4.3128309 6.8819823 0
24.941042 -3.8249381 6.9230356 0
24.952398 -3.7641714 6.8756566 0
24.971556 3.7660396 6.8313742 0
24.940334 3.9217074 6.8789315 0
24.937157 4.1371021 6.9238849 0
24.929413 4.275135 6.9024196 0
24.988653 5.9851475 6.8577051 0
-14.792314 7.161552 6.9389524 0
-0.25698411 7.1665306 6.9132528 0
-0.12187243 7.1965704 6.8819571 0
0.22297382 7.1929307 6.8252821 0
7.3085871 7.1794662 6.9015946 0
7.6698127 7.1684937 6.8836894 0
14.814876 7.182055 6.8852501 0
15.172106 7.1897607 6.9065256 0
-14.828053 7.2116189 6.9614964 0
-0.14278412 7.2847462 6.8801961 0
0.059474468 7.3065004 6.9501367 0
7.7415013 7.2538509 6.975564 0
14.962501 7.3287296 6.9099131 0
24.945768 7.3214226 6.8787632 0
-14.725283 7.4466434 6.9933624 0
24.925098 7.4751735 6.9909163 0
24.95261 11.316932 6.8279419 0
24.939222 11.71118 6.8994007 0
-4.5409193 14.962276 6.9956999 0
3.5323167 14.977911 6.9512844 0
4.3599086 14.953215 6.981771 0
4.6999135 14.925273 6.9111109 0
5.0256448 14.928273 6.8793235 0
15.218317 14.937807 6.8840942 0
17.354982 14.897384 6.8774605 0
18.256184 14.915902 6.8598685 0
21.77383 14.918052 6.8364639 0
22.861357 14.894861 6.8081784 0
15.751645 15.002263 6.9953914 0
-3.6809494 -14.942813 7.1025634 0
-2.4219809 -14.907302 7.054244 0
-1.4335556 -14.888081 7.1924081 0
-1.3506632 -14.907521 7.1289186 0
-0.63361692 -14.892413 7.1344013 0
-0.13451576 -14.887686 7.0729523 0
0.37252235 -14.894999 7.1620669 0
3.7638991 -14.948819 7.0057812 0
4.3143668 -14.932726 7.1861858 0
4.5423551 -14.9213 7.1613107 0
4.7090588 -14.977201 7.0084648 0
4.9047241 -14.93764 7.1112866 0
15.139921 -14.986277 7.1715336 0
15.228125 -14.971075 7.1863217 0
15.483547 -14.912525 7.1082754 0
17.81665 -14.903458 7.1343517 0
18.814402 -14.900271 7.1296959 0
21.087349 -14.905746 7.1876802 0
22.190559 -14.901365 7.041007 0
24.933701 -11.72406 7.0563397 0
24.931402 -11.544535 7.168149 0
-7.2503357 -7.513525 7.1259041 0
7.2417946 -7.5066562 7.1361899 0
24.943043 -7.4004326 7.1534786 0
-14.752943 -7.256155 7.0893555 0
0.27269316 -7.3301177 7.027318 0
7.245461 -7.2794037 7.1365819 0
7.4659066 -7.2854805 7.0536437 0
24.902349 -7.2902226 7.0458899 0
-0.24364993 -7.176115 7.1278687 0
0.22943613 -7.1848793 7.0867267 0
7.297884 -7.1850653 7.1510954 0
7.6427073 -7.1813936 7.1441131 0
14.735101 -7.1901765 7.1459498 0
15.138338 -7.1765275 7.0995936 0
15.20924 -7.1724291 7.130146 0
24.905388 -7.1889458 7.0419569 0
24.961781 -6.7707648 7.1768818 0
24.930965 -6.1393576 7.1942062 0
24.938255 -4.608295 7.1857924 0
24.940113 -4.4894891 7.088479 0
24.946325 -4.3086267 7.0778193 0
24.939285 -4.085228 7.1002584 0
24.936895 -3.8810606 7.0460796 0
24.962185 3.7346075 7.1043129 0
24.944098 3.922107 7.0899205 0
24.956814 4.1643047 7.1091037 0
24.931883 4.5121846 7.0806427 0
24.937439 6.6591082 7.1148596 0
-14.875988 7.1288857 7.0626516 0
-0.26922673 7.1882911 7.127264 0
-0.11897326 7.1877041 7.0260096 0
0.11693716 7.1738205 7.0943565 0
7.2765756 7.1726618 7.0940504 0
7.6698585 7.1694221 7.1037331 0
14.827494 7.1739879 7.0956235 0
15.189857 7.1759515 7.1326318 0
-14.748243 7.3368359 7.026762 0
-0.24987313 7.2003789 7.081172 0
-0.1506691 7.2985506 7.0487652 0
0.053617477 7.3201141 7.1876259 0
7.2463284 7.3352056 7.1460657 0
7.5596771 7.3082738 7.1756897 0
15.120794 7.2061777 7.0218678 0
24.933378 7.2903132 7.1456189 0
-7.2476678 7.4834085 7.1683207 0
24.957317 7.441802 7.0590754 0
24.92897 11.295086 7.1102943 0
-4.8927679 14.938933 7.0689497 0
-3.7048535 14.975871 7.0145893 0
-2.2710667 14.896976 7.0613117 0
-1.1276464 14.898538 7.0807972 0
-0.47578812 14.905062 7.1603975 0
0.53203917 14.902514 7.1602483 0
1.6668701 14.902404 7.0897055 0
4.7118635 14.920053 7.1532784 0
4.8174105 14.932829 7.0159297 0
15.095775 14.971228 7.0479689 0
15.965679 14.906995 7.1096373 0
16.314587 14.959469 7.0537505 0
21.101746 14.895779 7.0376148 0
22.846186 14.906625 7.127449 0
-5.0548348 -14.894675 7.2274461 0
-4.7729754 -14.954469 7.3629589 0
-4.5272918 -14.998013 7.2771893 0
-2.4147568 -14.89668 7.377017 0
-1.6426215 -14.893233 7.2074299 0
1.4483867 -14.895054 7.2362995 0
2.5404124 -14.893216 7.2098341 0
3.8770761 -14.953422 7.2527666 0
4.030941 -14.930433 7.2407732 0
4.6582403 -14.957861 7.2771893 0
4.849864 -14.983496 7.3169584 0
15.271399 -14.970806 7.2560515 0
15.480581 -14.903711 7.3950806 0
15.649327 -14.958299 7.2133555 0
16.191462 -14.949117 7.2380238 0
17.618526 -14.905073 7.3455715 0
22.13187 -14.90589 7.2928514 0
24.961197 -11.470252 7.2903695 0
24.914429 -7.4900808 7.2213736 0
-14.758752 -7.2849178 7.3530807 0
0.23205216 -7.2806544 7.3209114 0
7.24722 -7.2475905 7.3383403 0
7.4978456 -7.2818708 7.248157 0
24.93993 -7.2648764 7.3063822 0
-7.6666579 -7.144393 7.3013926 0
-7.3878016 -7.1412611 7.2755156 0
-0.23234251 -7.1460609 7.3599648 0
-0.18487692 -7.1702814 7.305974 0
0.1889255 -7.165082 7.3050623 0
0.21545075 -7.1733875 7.3213596 0
7.308394 -7.1743307 7.3565879 0
7.6562004 -7.1775956 7.3332191 0
14.75884 -7.1785922 7.280632 0
15.128784 -7.1826515 7.3712597 0
15.213789 -7.1813889 7.371398 0
24.907984 -7.1549835 7.2717443 0
25.002855 -7.0977206 7.2930932 0
24.923344 -4.4566412 7.3294864 0
24.969328 -4.3739333 7.3496876 0
24.915905 -4.1354623 7.3148155 0
24.919933 -3.8219953 7.3547602 0
-24.980181 -2.1704907 7.3707676 0
24.956882 3.7596219 7.3510246 0
24.936312 3.9139309 7.3358283 0
24.92584 4.1636839 7.3683157 0
24.923225 4.2762823 7.3190789 0
24.980841 5.9806724 7.2632947 0
-14.863907 7.1255589 7.3941407 0
-14.783984 7.1595659 7.3278117 0
-0.25855947 7.1784811 7.285264 0
-0.12224007 7.1997662 7.3291378 0
0.11896157 7.1383619 7.3253841 0
0.21487403 7.1597886 7.3632917 0
7.283874 7.1655741 7.3178306 0
7.4059415 7.1564789 7.3679557 0
7.6686602 7.1780624 7.3534541 0
14.846514 7.1789007 7.302927 0
15.203277 7.1817741 7.353158 0
-14.85947 7.2227387 7.3162613 0
-7.25352 7.235076 7.3248353 0
0.23140669 7.236969 7.3037982 0
7.2623801 7.2901139 7.3371148 0
24.953405 7.3527913 7.309072 0
-14.751402 7.4586816 7.3666072 0
0.25127792 7.4206386 7.2309532 0
24.931507 7.4537473 7.3277435 0
24.887878 11.297597 7.399581 0
24.928312 11.705054 7.2585258 0
-4.8656678 14.952769 7.3435059 0
-1.443449 14.904257 7.228507 0
-1.1050634 14.903737 7.2974529 0
0.036539078 14.905393 7.3178301 0
0.22814941 14.898974 7.2024183 0
4.6862917 14.93988 7.2641191 0
4.8949633 14.934327 7.3044357 0
15.135771 14.957661 7.3652987 0
15.343458 14.950975 7.286592 0
15.914335 14.907301 7.3378305 0
16.928761 14.909766 7.3113704 0
18.688259 14.924773 7.2390137 0
15.152412 -15.001821 7.5083055 0
15.326485 -15.001179 7.5821714 0
-5.0675249 -14.919209 7.5327234 0
-4.843668 -14.960135 7.4807644 0
-4.5759802 -14.976075 7.4987545 0
-1.3441877 -14.89644 7.4521103 0
-0.25439072 -14.89482 7.4254432 0
4.550868 -14.961842 7.4812942 0
4.6460543 -14.918731 7.5981693 0
4.8948255 -14.972878 7.5310235 0
15.117559 -14.945172 7.4200439 0
15.231728 -14.970381 7.5310044 0
15.66148 -14.982793 7.5167475 0
16.187899 -14.93959 7.5222044 0
17.826668 -14.917509 7.4731131 0
18.825321 -14.914448 7.4683142 0
21.080128 -14.894795 7.4973783 0
21.363855 -14.895267 7.4219618 0
24.949762 -11.734601 7.434371 0
24.93725 -11.541141 7.5329309 0
-7.2352004 -7.6389804 7.5639005 0
-7.2788553 -7.4474287 7.5547471 0
7.7058082 -7.4245553 7.5174656 0
24.938168 -7.5006022 7.5308976 0
-14.761716 -7.2574906 7.4403486 0
-7.2799377 -7.3123212 7.5465832 0
0.19866562 -7.2600236 7.4062343 0
0.23139906 -7.2809081 7.5509591 0
7.2786636 -7.2617717 7.5356407 0
7.4859385 -7.297245 7.4640551 0
15.151102 -7.2056994 7.568028 0
24.936081 -7.2637825 7.5338106 0
-7.3929772 -7.1467528 7.4792171 0
-0.22246999 -7.1521893 7.5431299 0
-0.18488216 -7.1688304 7.5315313 0
0.18397164 -7.1790175 7.5419426 0
0.21855269 -7.1848836 7.5206923 0
7.3412848 -7.1760931 7.5357008 0
7.6548743 -7.165688 7.4753823 0
14.779783 -7.1870294 7.4591813 0
15.14465 -7.1891851 7.5277214 0
15.205477 -7.167387 7.5268402 0
24.947094 -7.1275597 7.591568 0
24.934389 -5.8931623 7.4151859 0
24.916382 -4.6922035 7.4739461 0
24.924049 -4.4972587 7.5385666 0
24.924849 -4.0317411 7.4863691 0
24.936028 -3.908211 7.5360951 0
24.95945 -3.798872 7.5384283 0
-24.983936 -2.2262912 7.5418062 0
-24.982536 -2.193819 7.4448671 0
24.950405 3.7036715 7.4722815 0
24.940411 3.9253435 7.4916039 0
24.943222 4.1091928 7.5252571 0
24.910362 4.5550885 7.4106092 0
24.966965 6.6704745 7.5094724 0
-14.757824 7.1925459 7.4225574 0
-0.26025203 7.1732821 7.5043921 0
-0.11840582 7.1878476 7.4768381 0
0.12116814 7.171895 7.4436474 0
0.23217106 7.1811047 7.5580292 0
7.2969947 7.1746926 7.523592 0
7.6448364 7.1651382 7.513083 0
14.796932 7.1993227 7.4456873 0
14.84346 7.1751165 7.4899721 0
15.155678 7.1777663 7.5840712 0
-14.740208 7.3366675 7.4685097 0
-7.6228833 7.2775311 7.5223389 0
-7.2590814 7.2353854 7.5181799 0
-0.081916809 7.3165631 7.4197955 0
0.056655169 7.3124762 7.5018883 0
0.21701598 7.2459335 7.532516 0
7.2477689 7.2897177 7.4799938 0
14.714556 7.2407799 7.5206223 0
24.947641 7.3020606 7.4675984 0
-7.2790031 7.5548387 7.5862885 0
24.955635 11.309494 7.4478798 0
-4.8299513 14.966743 7.5537167 0
-3.4233456 14.911794 7.4735222 0
0.21558666 14.914798 7.543004 0
4.556025 14.964694 7.5699334 0
4.6958189 14.946742 7.5278435 0
4.9153929 14.949237 7.5692883 0
5.0291505 14.950104 7.4399891 0
17.35848 14.906553 7.5060263 0
21.778013 14.920989 7.5022082 0
21.827744 14.905926 7.4111681 0
22.819073 14.899218 7.4448094 0
8.1875381 -15.006162 7.7192392 0
10.773045 -15.008788 7.7293053 0
-11.230357 -14.973278 7.7621307 0
-9.0745296 -14.914341 7.6868229 0
-4.7937875 -14.931149 7.6255879 0
-4.1712909 -14.917338 7.6115084 0
-0.13359356 -14.889544 7.7486043 0
4.6126642 -14.921766 7.7036104 0
4.8009214 -14.9623 7.6610169 0
5.5858645 -14.980466 7.6586466 0
6.8284445 -14.940442 7.7582741 0
9.0527468 -14.926918 7.7307425 0
10.105518 -14.940844 7.7057171 0
10.258533 -14.987945 7.7831564 0
10.62971 -14.986227 7.7541442 0
11.313454 -14.926382 7.7238436 0
12.949244 -14.954445 7.6884542 0
13.430629 -14.995972 7.6703749 0
14.24724 -14.920809 7.7086654 0
15.086864 -14.935906 7.7190642 0
15.321995 -14.923645 7.7809114 0
15.476896 -14.892994 7.6829386 0
17.612541 -14.893278 7.6577959 0
20.396679 -14.893494 7.74718 0
22.189064 -14.90206 7.7088642 0
24.945845 -11.487077 7.7083907 0
-7.2426453 -7.4128666 7.6851621 0
7.7002025 -7.4154038 7.6980972 0
-14.764019 -7.2914586 7.7655663 0
-7.274519 -7.2695103 7.7764931 0
0.15497971 -7.2193203 7.6282687 0
0.23632717 -7.2948947 7.7621889 0
7.2728176 -7.251359 7.7306151 0
7.6497412 -7.2827487 7.7976704 0
15.096177 -7.2631369 7.7009983 0
24.89426 -7.2474251 7.7256579 0
-7.3697128 -7.1636329 7.7229295 0
-0.25312284 -7.1681046 7.7489867 0
0.22269368 -7.1809287 7.6926064 0
7.2960143 -7.1744208 7.6921515 0
7.6434317 -7.1774235 7.6869125 0
14.783225 -7.1825004 7.685904 0
15.133888 -7.1726322 7.6793923 0
24.994255 -7.0947657 7.6475811 0
24.914989 -4.4531703 7.6146946 0
24.962383 -4.3720174 7.6731715 0
24.936085 -4.0963774 7.7009511 0
-24.969646 -2.2804861 7.6490221 0
-24.967016 -2.0890193 7.7004485 0
24.947018 3.7556884 7.6124277 0
24.945824 3.9328439 7.686779 0
24.928961 4.1834321 7.6219573 0
-24.954872 4.966794 7.6856189 0
-24.921753 5.0730324 7.7315216 0
24.948154 5.9679585 7.7242913 0
24.916786 6.2095323 7.7942829 0
-14.83268 7.1465502 7.7253375 0
-0.25566307 7.1739345 7.683619 0
-0.19089532 7.178216 7.7352667 0
0.12058473 7.1754351 7.7126884 0
0.2252717 7.1885324 7.7499542 0
7.2948809 7.1738043 7.7397857 0
7.4094839 7.1598463 7.7025805 0
7.6593666 7.1729164 7.6784301 0
14.839014 7.1717634 7.6788168 0
-14.854383 7.2190733 7.6678181 0
-7.2563992 7.2727551 7.7439294 0
0.22914362 7.231329 7.7105484 0
7.3032131 7.2348061 7.7400694 0
14.722357 7.2480297 7.731359 0
14.805779 7.2131767 7.624445 0
24.949774 7.3295259 7.6796608 0
-14.742882 7.4570518 7.7370224 0
-7.2599549 7.5181484 7.6213155 0
24.938288 7.4566569 7.6348515 0
24.915705 11.33158 7.7203856 0
24.94429 11.718586 7.6238279 0
-11.449127 14.982234 7.6280785 0
-4.801693 14.943677 7.6105609 0
-4.2676539 14.923193 7.6095629 0
-2.2699118 14.8992 7.7370973 0
-1.1275578 14.900824 7.7567887 0
8.1328564 14.979272 7.6915588 0
9.0911322 14.928236 7.7238622 0
10.62981 14.986168 7.754148 0
11.194258 14.94558 7.697217 0
12.953499 14.990711 7.7355871 0
13.966173 14.992261 7.713912 0
15.080052 14.977819 7.625968 0
15.338283 14.938666 7.6096768 0
15.582808 14.953422 7.6357365 0
16.106392 14.92036 7.6923075 0
16.597351 14.955905 7.6098986 0
21.82122 14.894137 7.7327261 0
22.081133 14.897376 7.6623001 0
9.8753242 15.011967 7.7524514 0
10.693997 15.003174 7.7106428 0
14.133969 15.010298 7.6179895 0
9.8388186 -15.011365 7.8696074 0
-3.5921021 -14.891999 7.8201237 0
-2.5257149 -14.891633 7.8963451 0
-1.4370813 -14.890041 7.8695216 0
8.090559 -14.973301 7.8032675 0
8.8620968 -14.921658 7.8106375 0
9.2647896 -14.89497 7.8892336 0
14.551215 -14.913997 7.8228192 0
14.849184 -14.891551 7.8373241 0
17.816116 -14.904237 7.8084898 0
18.815502 -14.901081 7.8035278 0
22.022142 -14.904176 7.827085 0
24.937325 -11.725942 7.8096633 0
24.955851 -11.480586 7.9312572 0
-7.273685 -7.476799 7.8661814 0
7.6941085 -7.4066839 7.8809295 0
24.927734 -7.4943581 7.8359966 0
0.21886897 -7.2240849 7.943295 0
7.2535081 -7.2540646 7.9346542 0
7.4815111 -7.2922087 7.8485022 0
14.726077 -7.2808533 7.9139061 0
15.104609 -7.2792754 7.874002 0
24.943373 -7.3136959 7.8221955 0
-7.3762178 -7.1315165 7.8807082 0
-0.11298466 -7.1827712 7.9110436 0
0.17039852 -7.1663842 7.9306488 0
0.21545285 -7.1792011 7.9231677 0
7.3386307 -7.1699181 7.8682022 0
7.6531181 -7.1753182 7.9325414 0
14.767773 -7.1711483 7.9045572 0
15.142187 -7.1872306 7.8696942 0
15.254235 -7.1831951 7.8346386 0
24.926779 -7.1484756 7.9351082 0
24.943998 -4.8189869 7.8696966 0
24.941732 -4.679575 7.8173223 0
24.975197 -4.5240631 7.853467 0
24.940063 -4.2412834 7.8681107 0
24.926714 -4.000474 7.953105 0
24.921717 -3.8643696 7.8450141 0
24.945934 -3.7914732 7.9967527 0
-24.971855 -2.1605177 7.9158888 0
24.98209 3.7366638 7.8602943 0
24.944279 3.9150002 7.8769045 0
24.927282 4.0833745 7.8724427 0
24.89912 4.5520015 7.8683615 0
24.958771 6.6695018 7.9011045 0
-0.25527105 7.1641922 7.8894029 0
-0.18381023 7.1626301 7.8924437 0
0.12026453 7.178678 7.9862852 0
0.21802711 7.1963444 7.9446115 0
7.3058243 7.1691127 7.9083409 0
7.6747985 7.1688781 7.8937564 0
14.845381 7.1793728 7.874486 0
15.172052 7.1744709 7.9520397 0
15.202669 7.1781049 7.828413 0
-14.729727 7.3357329 7.9114428 0
-7.2628365 7.2452655 7.9606051 0
0.22141838 7.2433128 7.9017339 0
7.2502251 7.2827339 7.8961434 0
7.7213717 7.2016029 7.8203926 0
14.730803 7.2558694 7.9448743 0
15.0812 7.2423649 7.8550615 0
24.922419 7.3168945 7.8876309 0
-7.2671709 7.523087 7.9317775 0
24.9298 7.4824295 7.9667654 0
24.948021 11.255469 7.8175344 0
24.930155 11.710119 7.9855847 0
-11.24846 14.934201 7.895216 0
-5.1952858 14.904199 7.996748 0
-3.4135733 14.898902 7.8103514 0
0.22440243 14.901363 7.8798943 0
5.9414172 14.985825 7.8113804 0
10.647024 14.973513 7.8540125 0
14.235866 14.895907 7.8309593 0
15.196754 14.894789 7.9094009 0
16.211288 14.897111 7.8843265 0
17.350742 14.89458 7.8197393 0
17.731209 14.925147 7.8264551 0
18.247978 14.906634 7.88836 0
21.102451 14.892859 7.9881182 0
-10.243339 -14.908754 8.1391926 0
-8.3495827 -14.907279 8.1240845 0
-6.294198 -14.896432 8.0603046 0
-5.0580959 -14.895869 8.135128 0
-3.6060095 -14.910275 8.1652517 0
-1.63551 -14.894379 8.1157656 0
-0.63518429 -14.893516 8.042141 0
-0.1459322 -14.907145 8.0932503 0
0.37203693 -14.896143 8.0699015 0
1.4456649 -14.896184 8.1456299 0
2.5380855 -14.894272 8.1184044 0
4.6043735 -14.893229 8.0118141 0
5.8056231 -14.883739 8.1223116 0
8.2679005 -14.884213 8.1304264 0
9.0000238 -14.898894 8.0428667 0
11.280618 -14.923922 8.1920547 0
14.545519 -14.900277 8.1384373 0
16.824371 -14.919957 8.0442724 0
17.828514 -14.921465 8.1525154 0
18.828806 -14.918424 8.1474419 0
21.083397 -14.902944 8.1281796 0
21.992523 -14.893122 8.1351166 0
22.200453 -14.918752 8.0494137 0
24.958796 -11.740124 8.1934071 0
24.938501 -11.526901 8.0900555 0
-7.2135258 -7.7805858 8.1932116 0
-7.232336 -7.4064884 8.0055637 0
24.935104 -7.4459448 8.1617804 0
-14.785191 -7.3204207 8.1235561 0
-7.2922997 -7.2667565 8.0794029 0
0.2113142 -7.2339888 8.1404324 0
7.3225636 -7.2742734 8.0655642 0
7.6461611 -7.2762332 8.1621885 0
14.722629 -7.3431358 8.1336422 0
15.0946 -7.2615643 8.0340176 0
24.94451 -7.2616982 8.0495033 0
-7.3887925 -7.1421909 8.0476608 0
-0.24463138 -7.1757011 8.1343727 0
-0.19091392 -7.1836653 8.1671619 0
0.22333069 -7.1579905 8.0909424 0
7.3372469 -7.1734076 8.0963783 0
7.6604934 -7.169692 8.130559 0
14.774426 -7.1792908 8.0954247 0
15.146172 -7.1922112 8.1278267 0
15.23148 -7.1594834 8.0535593 0
24.936749 -7.1418123 8.0630693 0
24.958349 -6.1508861 8.0145969 0
24.904322 -4.7193255 8.1416702 0
24.938396 -4.3143821 8.1103153 0
24.914658 -4.1607809 8.1093884 0
24.946335 -3.796273 8.001852 0
24.972563 3.7783628 8.1016998 0
24.939165 3.915688 8.1463795 0
24.917315 4.1582251 8.0533972 0
25.005159 5.9827676 8.0851116 0
-0.25898594 7.179666 8.1106653 0
-0.19316721 7.1825733 8.0680723 0
0.13580418 7.1601796 8.1617889 0
0.23449278 7.1773682 8.1291351 0
7.3060632 7.1767693 8.1375275 0
7.4118385 7.1611195 8.045351 0
7.6784964 7.1745667 8.0766697 0
14.840517 7.1734838 8.0665503 0
15.112587 7.1862173 8.0048256 0
15.205716 7.1845417 8.1607122 0
-7.2523155 7.2799354 8.1202669 0
0.024860382 7.3030176 8.0398464 0
0.21654177 7.2333441 8.1977882 0
7.3111067 7.2005124 8.0720024 0
14.712446 7.2393599 8.1494341 0
15.092003 7.2497768 8.1110344 0
24.939295 7.3247194 8.0838776 0
-14.766533 7.4989328 8.1007938 0
-7.2114229 7.5914149 8.0800047 0
24.931046 11.317136 8.0786924 0
-10.394183 14.918983 8.1476078 0
-9.1861992 14.917609 8.0860281 0
-6.4589486 14.907448 8.0836124 0
-3.9378374 14.899405 8.1361361 0
-3.4270144 14.917423 8.1560001 0
-3.2585173 14.912836 8.0227785 0
-2.2817507 14.917209 8.0817719 0
-1.4368176 14.905705 8.1405754 0
-1.1400394 14.919067 8.1016703 0
-0.47790956 14.906555 8.0730925 0
0.53188372 14.903961 8.072854 0
1.6686759 14.903865 8.0008888 0
5.8057208 14.883712 8.1223164 0
8.3573294 14.88032 8.1304846 0
9.0762911 14.901852 8.0305624 0
10.179569 14.900669 8.1384201 0
15.976536 14.925071 8.1486359 0
17.308115 14.92589 8.133009 0
22.778898 14.907679 8.088192 0
-9.0302181 -14.897617 8.2784824 0
-7.2572455 -14.893357 8.3244219 0
-7.1327291 -14.884922 8.3151445 0
-6.3006501 -14.888961 8.2450933 0
-3.9677429 -14.891832 8.2614822 0
-2.4745584 -14.898394 8.3009453 0
-1.4523249 -14.908601 8.2154455 0
5.8565683 -14.896025 8.3883467 0
6.6625142 -14.887635 8.3507519 0
8.3476992 -14.88768 8.278677 0
9.9715481 -14.905109 8.281559 0
10.144091 -14.899174 8.2550192 0
15.521518 -14.91111 8.2161198 0
16.547741 -14.899065 8.2231894 0
16.814533 -14.903302 8.3824129 0
17.619862 -14.901916 8.2948284 0
21.293779 -14.891881 8.3344421 0
22.187405 -14.902569 8.3845959 0
24.951355 -11.477687 8.2860022 0
-14.757485 -7.2121539 8.3057022 0
0.17420673 -7.2001443 8.2665272 0
0.21267366 -7.212554 8.3669376 0
7.3047457 -7.2684655 8.288805 0
7.4686155 -7.304307 8.3156033 0
14.731895 -7.3518338 8.3518343 0
15.102819 -7.2773352 8.2124119 0
24.930725 -7.2582326 8.3365202 0
-7.3651066 -7.1591325 8.2939558 0
-0.25299668 -7.1610498 8.2614632 0
-0.15155537 -7.166254 8.3022346 0
0.15519655 -7.1671672 8.3002901 0
0.21229792 -7.1723318 8.2774925 0
7.3523407 -7.1779094 8.312685 0
7.6541367 -7.164402 8.2982178 0
14.762308 -7.1860232 8.2654724 0
14.846943 -7.1952353 8.3371363 0
15.136078 -7.1618676 8.3244352 0
15.217351 -7.1728926 8.2953043 0
24.941132 -7.1070809 8.3584242 0
24.952196 -4.6572962 8.2535191 0
-24.914307 -4.3157291 8.3704386 0
24.947449 -4.2969232 8.3506136 0
24.959623 -4.1250834 8.2619944 0
24.958204 -3.8475456 8.3035116 0
-24.960609 -2.0888081 8.2684364 0
24.953934 3.7943802 8.2789793 0
24.934992 3.9305809 8.3573732 0
24.952765 4.1212945 8.3508501 0
24.952477 4.4084158 8.2175102 0
-24.949638 4.9632239 8.3591967 0
24.964624 5.9730301 8.2124901 0
24.948151 6.6677423 8.2941132 0
-14.754891 7.1892009 8.3433733 0
-0.25116682 7.172524 8.2832851 0
0.23538333 7.1788073 8.3205128 0
7.3197317 7.1766253 8.3282671 0
7.6925149 7.1728745 8.2675381 0
14.847608 7.1817002 8.2680779 0
15.19878 7.1658559 8.3199749 0
-14.837435 7.208982 8.374958 0
-7.2609406 7.2792611 8.3193502 0
7.2881031 7.2395978 8.3640862 0
14.746867 7.2918978 8.3724966 0
15.059074 7.3086796 8.2468681 0
24.94149 7.3550348 8.3512001 0
24.92997 7.4535036 8.2515144 0
24.901842 11.304903 8.3835173 0
24.95591 11.423388 8.3273792 0
24.949785 11.726344 8.3566494 0
-9.1942587 14.894709 8.3460979 0
-7.9848976 14.894658 8.2832785 0
-5.0722446 14.89779 8.3558969 0
-3.2485304 14.896926 8.3503551 0
-2.2375135 14.893491 8.3544445 0
-1.0950155 14.894032 8.2806606 0
0.20935535 14.920566 8.2260723 0
5.7995644 14.882526 8.3724222 0
6.7253461 14.891485 8.3380518 0
8.3707018 14.897113 8.309267 0
9.8964596 14.901098 8.263773 0
13.624138 14.905179 8.2179642 0
14.955499 14.905879 8.22089 0
15.498053 14.938382 8.3671455 0
15.911679 14.904688 8.3057718 0
16.927166 14.907154 8.2796593 0
18.261318 14.924335 8.2397804 0
21.828693 14.903196 8.3887215 0
-9.3032799 -14.904499 8.5881367 0
-8.331358 -14.900617 8.5855274 0
-7.8179522 -14.88517 8.4160328 0
-6.3271742 -14.895617 8.5676956 0
-2.6842604 -14.898501 8.5728483 0
-1.3402185 -14.885759 8.4364338 0
-0.24975777 -14.8842 8.409296 0
4.3553319 -14.898834 8.5982018 0
5.7707262 -14.879291 8.4924374 0
9.2699518 -14.905523 8.5245924 0
10.109819 -14.904211 8.5755777 0
14.538325 -14.88404 8.4551601 0
15.510575 -14.894381 8.5437775 0
16.538162 -14.88275 8.5399151 0
17.815403 -14.904799 8.4908133 0
18.816442 -14.90167 8.4856033 0
21.073278 -14.887098 8.442009 0
24.943293 -11.729394 8.5719872 0
24.936951 -11.526814 8.4290829 0
24.945583 -7.5008273 8.4611225 0
-14.70546 -7.2857113 8.513792 0
-7.2507615 -7.3569965 8.4893999 0
0.16187 -7.2092137 8.491766 0
7.3254614 -7.2870545 8.566143 0
15.098827 -7.2713923 8.559145 0
24.919641 -7.2859607 8.4862947 0
-7.3244567 -7.1978855 8.5630922 0
-0.24854136 -7.1477184 8.4614506 0
-0.18904233 -7.1751084 8.577672 0
0.15340537 -7.1811934 8.5522451 0
7.3506422 -7.1729746 8.4825306 0
7.657701 -7.1697478 8.5271292 0
15.14006 -7.18435 8.4838781 0
15.200778 -7.1529932 8.4448528 0
24.958183 -4.877562 8.4243336 0
24.916458 -4.662056 8.5070744 0
24.954609 -4.5182686 8.5762739 0
24.939045 -4.2551637 8.4926424 0
24.93026 -3.7932239 8.467536 0
-24.955879 -1.9382017 8.5229321 0
24.949812 3.7498817 8.4922762 0
24.958015 3.9088733 8.5353851 0
24.903599 4.5832081 8.4823837 0
-24.908958 5.0619822 8.4243269 0
24.994806 5.9775572 8.4958906 0
-0.25798059 7.1943498 8.4619284 0
0.24014735 7.1989861 8.4891167 0
7.3313489 7.1844563 8.5346937 0
7.6758027 7.1724176 8.4912739 0
14.843067 7.1493483 8.4846649 0
15.203449 7.1767988 8.5838413 0
-15.060474 7.3797965 8.5777693 0
-7.2369695 7.2385087 8.5200014 0
0.055908442 7.3130417 8.4182348 0
0.23019385 7.2273579 8.41957 0
15.148851 7.2010436 8.4826069 0
24.943573 7.2988968 8.484108 0
-14.718679 7.4509873 8.4817142 0
24.927174 7.4188595 8.4992504 0
24.946781 11.257193 8.5109463 0
-8.4619551 14.909909 8.5943146 0
-6.5016456 14.894879 8.4296379 0
-1.1275053 14.903191 8.4409943 0
0.2206192 14.903768 8.5660925 0
0.77084064 14.910804 8.5501652 0
4.3554282 14.898815 8.5982065 0
6.2023201 14.902262 8.5550699 0
9.8859911 14.884816 8.5835524 0
10.192294 14.907387 8.5663147 0
10.212777 14.909017 8.4681053 0
13.613485 14.889218 8.5406666 0
14.948074 14.889454 8.5441122 0
15.962835 14.908776 8.4939938 0
17.326492 14.907062 8.4698372 0
18.247931 14.907481 8.5852699 0
22.748867 14.895995 8.4087534 0
-7.0940065 -14.90027 8.6629829 0
-5.1071558 -14.891555 8.734024 0
-0.60848808 -14.90122 8.6818485 0
0.48278046 -14.899662 8.6544437 0
8.2723703 -14.893349 8.7786446 0
9.0035448 -14.903203 8.7264881 0
13.850337 -14.883718 8.6998787 0
14.843934 -14.88475 8.7791109 0
15.84802 -14.882539 8.7791319 0
16.832172 -14.923101 8.7323389 0
17.610924 -14.885154 8.6114902 0
20.390944 -14.886799 8.6799946 0
21.950161 -14.901166 8.7639065 0
22.20068 -14.92182 8.7312603 0
24.940624 -11.506314 8.6680737 0
24.918379 -7.5213909 8.7827415 0
-7.204668 -7.3904881 8.6500759 0
0.23952323 -7.2692604 8.7608232 0
7.2904844 -7.2427354 8.7143612 0
15.125544 -7.2440248 8.6964922 0
24.914307 -7.2369332 8.6710777 0
-7.3899612 -7.1438503 8.7241058 0
-0.25664139 -7.1731224 8.788868 0
-0.14105225 -7.1905012 8.7591019 0
0.2003541 -7.1850638 8.6795444 0
7.3501806 -7.17799 8.7501431 0
7.6543393 -7.1760101 8.7226362 0
15.166069 -7.1717229 8.6994848 0
24.943409 -7.0861979 8.7238464 0
25.007151 -7.1007195 8.7302914 0
-24.906891 -6.5911627 8.699048 0
24.938824 -4.6606798 8.6585808 0
25.000923 -4.636981 8.6541014 0
24.932096 -4.4384956 8.7260008 0
24.949776 -4.2788811 8.7731657 0
24.941315 -4.1010971 8.6853504 0
24.948029 -3.8925512 8.7509212 0
24.922615 3.7683058 8.7101746 0
24.934027 3.9275227 8.6748619 0
24.93335 6.3967619 8.6546259 0
24.938625 6.4682412 8.7775249 0
24.935001 6.6651621 8.6886015 0
-24.904888 6.9549112 8.6526976 0
-14.840405 7.1228547 8.7415924 0
-0.25052881 7.1720767 8.6203079 0
0.14203024 7.1578894 8.7283354 0
0.22877982 7.1870775 8.6893425 0
7.3079414 7.1713939 8.7200327 0
7.6939917 7.1600981 8.688488 0
14.829535 7.1730428 8.7356529 0
-14.88061 7.2248054 8.7432594 0
-7.2613845 7.2309833 8.7899036 0
-0.13572598 7.2826705 8.7028828 0
0.052203059 7.321497 8.6871548 0
7.3323789 7.2121153 8.7308111 0
15.136383 7.2094812 8.6711245 0
24.960123 7.3418794 8.7239723 0
24.949003 7.4948683 8.632205 0
24.920105 11.318679 8.7205334 0
24.933361 11.421687 8.62743 0
24.932043 11.715265 8.7216463 0
-9.2938576 14.916511 8.6732683 0
-9.1873322 14.922628 8.7794552 0
-2.2826395 14.92229 8.7719574 0
9.0845451 14.901276 8.6820946 0
14.240252 14.889332 8.7909641 0
15.485041 14.919965 8.7211609 0
15.90119 14.888273 8.6287041 0
16.917074 14.890813 8.6027336 0
17.344437 14.888255 8.7791843 0
21.819017 14.886368 8.714838 0
22.012272 14.894649 8.6112375 0
-7.1312184 -14.887849 8.9875774 0
-6.3042412 -14.891131 8.9126167 0
-3.6096573 -14.915028 8.8561554 0
-0.63567257 -14.89238 8.9695644 0
0.3726635 -14.895032 8.9975243 0
6.7647915 -14.889321 8.9639225 0
8.3250513 -14.875067 8.9512777 0
9.259778 -14.888223 8.8399696 0
15.502642 -14.923924 8.8975229 0
16.922489 -14.88478 8.8510628 0
17.829708 -14.924574 8.8411665 0
18.831665 -14.921556 8.8358765 0
24.924805 -11.716655 8.9516926 0
24.965277 -11.47097 8.8985806 0
24.906792 -11.201708 8.9944992 0
-7.2731647 -7.4136362 8.9520397 0
24.961338 -7.4081249 8.9038181 0
-14.758015 -7.243535 8.9085484 0
-7.252511 -7.3025193 8.8205585 0
-0.14807653 -7.2012196 8.962244 0
0.23637767 -7.2702622 8.9660234 0
7.3300128 -7.2803402 8.9244785 0
7.6533928 -7.2817392 8.9324684 0
15.092058 -7.2603951 8.9143925 0
24.94873 -7.3091989 8.8864679 0
-7.388895 -7.1463733 8.9654121 0
-0.26365709 -7.1892548 8.9788132 0
0.17258477 -7.1946406 8.8772011 0
0.22623014 -7.199461 8.9922905 0
7.2970419 -7.1468625 8.9389439 0
7.6645107 -7.172998 8.8813877 0
14.741389 -7.1773624 8.9066896 0
15.155326 -7.159708 8.9022055 0
24.880154 -7.1905189 8.9410954 0
24.991005 -5.3251882 8.89361 0
24.940823 -4.5145645 8.9400492 0
24.94607 -4.2662802 8.8730612 0
24.924639 -4.056427 8.99189 0
24.903147 -3.8797379 8.9036093 0
24.91107 -3.7897015 8.9356079 0
-24.939024 -1.5686406 8.9612589 0
24.965393 3.7299182 8.9436989 0
24.956146 3.9052413 8.9210434 0
24.932987 4.1088896 8.8915224 0
24.9895 5.0857015 8.862751 0
24.978981 5.476233 8.8460894 0
-0.25252318 7.1794281 8.8861341 0
0.13687181 7.166698 8.9286175 0
7.3143764 7.183538 8.8582077 0
7.6873312 7.1718111 8.9157267 0
14.814512 7.1875095 8.9727659 0
15.136447 7.1835127 8.8891602 0
15.207656 7.1865158 8.8542757 0
24.905842 7.1990023 8.9689217 0
-7.5412683 7.2739925 8.8209429 0
-7.2567787 7.2450523 8.9280701 0
-0.14683342 7.3024158 8.9978037 0
0.049130678 7.3284397 8.9624853 0
0.23351291 7.2081976 8.8772898 0
