# .PCD v0.7 - Point Cloud Data file format
VERSION 0.7
FIELDS x y z intensity
SIZE 4 4 4 4
TYPE F F F F
COUNT 1 1 1 1
WIDTH 1453
HEIGHT 1
VIEWPOINT 0 0 0 1 0 0 0
POINTS 1453
DATA ascii
0.15475313 -4.5839419 9.3917818 0
7.383255 -4.6889315 9.2442789 0
7.7293 -4.5606909 9.2219067 0
14.763412 -4.650538 9.4143972 0
14.886777 -4.6361427 9.388216 0
24.939756 -4.5714049 9.3654613 0
-24.965239 -4.1839967 9.4727077 0
-14.933648 -4.2188549 9.4165068 0
-14.771808 -4.2721248 9.3889856 0
-7.6012602 -4.2230978 9.2263021 0
-7.3474784 -4.177083 9.4085283 0
-0.11810398 -4.2391133 9.2231369 0
0.13061641 -4.1869793 9.4218893 0
7.5192127 -4.2562222 9.2174101 0
7.7027478 -4.0437217 9.2435322 0
14.759869 -4.1751237 9.3450308 0
14.909725 -4.2167444 9.3651505 0
24.945024 -4.1859212 9.3323317 0
-24.958017 -3.8147457 9.4015551 0
-14.888279 -3.8346541 9.4666224 0
-14.739074 -3.8145738 9.3741379 0
-7.7115793 -3.9359879 9.3440142 0
-7.3056231 -3.7919877 9.4325695 0
-0.18480134 -3.8336353 9.218154 0
0.16142425 -3.7999787 9.3940144 0
7.7371354 -3.903563 9.220295 0
14.763382 -3.8061059 9.4129314 0
14.926194 -3.7897909 9.4153166 0
24.950548 -3.8808873 9.3396969 0
-24.964922 -3.4291 9.3973961 0
-14.879341 -3.4194083 9.4819202 0
-14.732584 -3.2404454 9.4166069 0
-7.7147951 -3.4226356 9.3241673 0
-7.3300066 -3.3814311 9.3890238 0
-0.13653088 -3.3361909 9.2886925 0
0.14210713 -3.4140346 9.4181299 0
14.754147 -3.4271336 9.3037891 0
14.896564 -3.4715817 9.4168425 0
-24.93186 -2.9904945 9.4567661 0
-14.892737 -3.003757 9.4608355 0
-14.773312 -3.0514462 9.5113115 0
-7.6710119 -2.9851382 9.261961 0
-7.3275781 -2.9724426 9.3995714 0
-0.15517171 -2.9804046 9.2524261 0
0.15825963 -3.0020947 9.4076519 0
14.755095 -2.9928017 9.3289566 0
14.945734 -3.0330989 9.3935986 0
-24.93124 -2.5999112 9.409359 0
-14.875325 -2.6048207 9.4556837 0
-14.75059 -2.6941268 9.4560614 0
-7.6865735 -2.6093814 9.2921562 0
-7.3746414 -2.5760419 9.4133129 0
-0.168365 -2.587657 9.2101145 0
0.15397818 -2.6195834 9.3114195 0
14.779916 -2.503324 9.2858086 0
14.91019 -2.6517222 9.3843584 0
-24.951384 -2.1839445 9.4392509 0
-14.900883 -2.22381 9.4116783 0
-14.748005 -2.2219248 9.4430761 0
-7.6708617 -2.1828003 9.2716112 0
-7.3537455 -2.1945658 9.4099512 0
-0.12668419 -2.1910439 9.2059135 0
0.15303603 -2.2046497 9.389081 0
14.753796 -2.1974347 9.4452181 0
14.941239 -2.2517047 9.3723831 0
-24.948038 -1.9604287 9.4346228 0
-14.895931 -1.8392454 9.4030266 0
-14.7369 -1.862394 9.4460497 0
-7.6422286 -1.7755841 9.2480173 0
-7.3432932 -1.7840462 9.4105339 0
-0.071163654 -1.8192409 9.2223549 0
0.16472399 -1.802799 9.3571663 0
14.755743 -1.8490082 9.3534803 0
14.99656 -1.8932505 9.3639879 0
-14.903463 -1.4546369 9.4088583 0
-14.748593 -1.4869334 9.4222355 0
-7.6503181 -1.3563169 9.2332087 0
-7.3462276 -1.3619184 9.4017363 0
-0.1749661 -1.3784941 9.2397461 0
0.14831871 -1.4037657 9.4438515 0
14.765882 -1.4000338 9.4440737 0
14.937819 -1.4838026 9.3298731 0
-14.895527 -1.1116749 9.3829174 0
-7.3450861 -1.0207283 9.375061 0
-0.20691013 -1.0278537 9.2407637 0
0.1520199 -0.9875406 9.4111891 0
14.759089 -0.96195734 9.4039211 0
14.94114 -1.0801115 9.3233614 0
-7.3343163 -0.67309779 9.4259014 0
-0.21471214 -0.79084212 9.2321835 0
0.13637042 -0.71008039 9.3743601 0
14.760371 -0.581379 9.3958521 0
14.921872 -0.67974246 9.3233614 0
14.759372 -0.22785099 9.3834085 0
14.917355 -0.27308133 9.3348408 0
14.759356 0.1845023 9.3839607 0
14.91595 0.20399556 9.321414 0
14.761429 0.61137676 9.3973866 0
14.926181 0.57182997 9.3239851 0
-7.3340893 1.0845982 9.3814182 0
-0.20619869 1.1028248 9.2428856 0
0.20087433 1.0499508 9.3791161 0
14.757553 1.0389379 9.386467 0
14.932374 0.97209692 9.3569899 0
-7.6419168 1.3852432 9.2070761 0
-7.3405786 1.4216375 9.3900681 0
-0.17654753 1.3641896 9.2491035 0
0.16074578 1.4066452 9.400815 0
14.752603 1.4505955 9.3969831 0
14.935245 1.341525 9.3732004 0
-14.941798 1.8866848 9.2655048 0
-7.6223717 1.7692914 9.2383213 0
-7.3632722 1.7894802 9.3709927 0
-0.12405252 1.680527 9.2527885 0
0.18056989 1.7869711 9.3255844 0
14.762257 1.7848817 9.3724318 0
14.996307 1.7739333 9.3274546 0
-14.931721 2.1707902 9.3702621 0
-7.6377344 2.1573136 9.2655201 0
-7.3794684 2.2169042 9.3955355 0
-0.012537003 2.2098556 9.2048492 0
0.15844482 2.203763 9.3824339 0
14.74281 2.250952 9.2722206 0
14.893688 2.1825244 9.3953667 0
-14.863932 2.6582959 9.4758787 0
-14.729505 2.5516176 9.378335 0
-7.6400552 2.6295385 9.2543259 0
-7.3787289 2.6343288 9.4075603 0
-0.18077517 2.5903959 9.2024288 0
0.13488169 2.6071079 9.3221331 0
14.760954 2.5995274 9.3004112 0
14.910247 2.5756786 9.3779478 0
-24.938719 3.1007426 9.2679491 0
-14.890189 2.9648046 9.4541197 0
-14.753496 3.0746264 9.4566107 0
-7.6728272 3.0812509 9.2300768 0
-7.3329611 3.020798 9.3896074 0
-0.18312311 2.9723117 9.2326412 0
0.14576226 3.0095694 9.3901987 0
14.760482 2.9533832 9.244688 0
14.938375 2.937655 9.395278 0
-24.974411 3.5497861 9.2946539 0
-14.888635 3.3035972 9.4551659 0
-14.77813 3.3877347 9.4810648 0
-7.6436739 3.329299 9.2500515 0
-7.3256817 3.4095287 9.3963718 0
-0.21163225 3.3885932 9.2203484 0
0.1389702 3.4047773 9.412261 0
14.76169 3.3706644 9.3019896 0
14.96281 3.3568761 9.39606 0
-24.963745 3.8791349 9.3887243 0
-14.885201 3.7972968 9.4446344 0
-14.765925 3.8052108 9.4959059 0
-7.6399517 3.6663933 9.2598801 0
-7.3466811 3.8001239 9.4016018 0
-0.16771774 3.8090081 9.2465239 0
0.16075107 3.7562399 9.3978949 0
7.7239294 3.8990138 9.2196875 0
14.761032 3.77021 9.3053341 0
14.906346 3.7649908 9.4566364 0
24.969944 3.9551952 9.2186451 0
-24.980574 4.2002349 9.4298086 0
-14.902736 4.1852293 9.4602032 0
-14.775383 4.2401514 9.536458 0
-7.623888 4.1130514 9.2565298 0
-7.3741207 4.2187829 9.3570337 0
-0.17506631 4.1336536 9.2722473 0
0.13355008 4.1771731 9.4093027 0
7.5043931 4.2510676 9.216589 0
7.6889868 4.0392308 9.2428865 0
14.764888 4.1374702 9.3863478 0
14.943738 4.1574354 9.3732882 0
24.943329 4.2327881 9.3429794 0
-24.962883 4.573936 9.4030561 0
-14.923902 4.6092048 9.3844767 0
-14.774174 4.6126323 9.4838295 0
-7.6763873 4.7630053 9.2307911 0
-7.3886671 4.6397324 9.3752737 0
-0.20533562 4.6271234 9.2406921 0
0.11383931 4.6467671 9.3619795 0
7.4513159 4.679801 9.2335644 0
7.7138119 4.5572157 9.2211657 0
14.757959 4.5739717 9.2980261 0
14.944596 4.5779347 9.3836393 0
24.942818 4.6228971 9.3330383 0
-24.987608 5.0534081 9.4368753 0
-14.897276 5.0323515 9.4124746 0
-14.749509 4.9732285 9.4605865 0
-7.623703 5.0604234 9.2634048 0
-7.3864059 5.0087657 9.3473854 0
-0.21860647 5.1013894 9.2132559 0
0.19132948 4.9872632 9.4002123 0
7.4429221 4.9603219 9.2532969 0
14.749169 4.9987254 9.2657223 0
14.931602 4.9546151 9.4030237 0
24.950314 5.0458617 9.3169127 0
-24.989208 5.4934468 9.3919897 0
-14.934954 5.403266 9.3584204 0
-7.6242294 5.4466438 9.2338114 0
-7.3666983 5.3987761 9.3969622 0
-0.12250614 5.317441 9.2671213 0
0.11340542 5.3811135 9.4033604 0
7.3971252 5.3750095 9.3116045 0
7.7097273 5.2833171 9.2549591 0
14.754703 5.2951245 9.3470478 0
14.893848 5.3611097 9.4154243 0
24.953148 5.4655037 9.3470364 0
-24.955624 5.7680688 9.4343338 0
-14.911479 5.7493143 9.390955 0
-14.777321 5.859508 9.3983536 0
-7.6185832 5.9062595 9.2131376 0
-7.3481169 5.8233175 9.4232149 0
-0.080113411 5.8499413 9.2627363 0
0.1580724 5.7938104 9.4274025 0
7.3518367 5.8093705 9.3688078 0
7.6862388 5.8632975 9.2366371 0
14.758086 5.7221928 9.2917776 0
14.990867 5.7689629 9.3459024 0
24.944418 5.9240975 9.3769979 0
-24.963627 6.2069955 9.4147863 0
-14.89966 6.184072 9.3650208 0
-14.770595 6.1831288 9.2991734 0
-7.6287742 6.1873384 9.2581549 0
-7.3562102 6.2116232 9.3892794 0
-0.16610622 6.1948752 9.2674398 0
0.13153884 6.1974311 9.3922358 0
7.3730845 6.2013187 9.2483168 0
7.6888433 6.2791228 9.2698946 0
14.755676 6.2073236 9.2400875 0
14.902586 6.1241345 9.3957176 0
24.941954 6.2399349 9.3847637 0
-24.963932 6.6761031 9.3818054 0
-14.896925 6.6160026 9.3705301 0
-14.768383 6.5383325 9.2531481 0
-7.607224 6.4383721 9.2545729 0
-7.3622961 6.6218882 9.4036293 0
-0.047361135 6.6633425 9.2083254 0
0.14698586 6.5691714 9.3707447 0
7.4201374 6.5883102 9.3246346 0
7.7211933 6.4971395 9.2745333 0
14.757916 6.6029153 9.3242893 0
14.930801 6.5425825 9.3986359 0
15.221058 6.7485495 9.2316113 0
24.937174 6.6239004 9.3953133 0
-24.981329 7.1420159 9.344903 0
-14.893831 6.9682794 9.4121971 0
-14.741379 6.9704185 9.3493824 0
-7.6678872 6.8766985 9.257637 0
-7.3556347 7.0081677 9.4164133 0
-0.070813656 7.0817003 9.2760792 0
0.16209467 6.9693384 9.3970642 0
7.3677707 6.9493184 9.3118458 0
7.6623468 6.9553251 9.3688021 0
14.751109 6.9374871 9.3495626 0
14.939356 6.9128146 9.3652306 0
24.934774 6.9788489 9.4159832 0
-24.965223 7.3993158 9.3808041 0
-14.890741 7.3707819 9.4171562 0
-14.757241 7.4662576 9.3449373 0
-7.6123285 7.2662129 9.2183809 0
-7.3478289 7.4072089 9.4191761 0
0.18047945 7.3810315 9.4107943 0
7.3547449 7.2989864 9.3995314 0
7.6945305 7.3625245 9.3213091 0
14.744985 7.3668613 9.2542801 0
14.880909 7.3616023 9.4342995 0
24.966915 7.3702893 9.4375095 0
-24.957663 7.6921134 9.3976059 0
-14.887896 7.8480945 9.4178267 0
-14.719701 7.8451982 9.3678274 0
-7.3536901 7.8020148 9.3978977 0
0.18421945 7.7774191 9.4061518 0
7.3310523 7.8174615 9.4214802 0
7.6779375 7.7735834 9.3621387 0
14.761912 7.7049022 9.2760153 0
14.884935 7.8339977 9.4535389 0
24.954054 7.7926869 9.49615 0
-24.943071 8.151824 9.3968391 0
-14.917542 8.2024641 9.3761396 0
-14.780756 8.2564878 9.4545746 0
-7.619493 8.2334671 9.2576199 0
-7.3760343 8.1904926 9.3863506 0
-0.13351917 8.1150932 9.2817574 0
0.16317168 8.2112417 9.3784304 0
7.1996422 8.3454056 9.3176785 0
7.3381286 8.1918402 9.3340168 0
7.6853924 8.1918001 9.4257994 0
14.755116 8.1243324 9.3733006 0
14.924027 8.1590452 9.3712549 0
15.202152 8.2492065 9.2015858 0
24.964827 8.2029181 9.4873686 0
-24.990074 8.6207132 9.3681669 0
-14.90975 8.6121836 9.4180088 0
-14.757316 8.6268606 9.4189968 0
-7.3479276 8.6111021 9.3541241 0
-0.17089224 8.5989017 9.2236814 0
0.17108741 8.5964584 9.3907852 0
7.3263865 8.5583858 9.4011431 0
7.669322 8.5675421 9.3759909 0
14.75365 8.6150732 9.3211632 0
14.918597 8.5034399 9.3846436 0
24.948318 8.6033268 9.4234114 0
-24.972233 9.0742922 9.3285923 0
-14.910926 8.9557848 9.3729181 0
-14.717777 9.0402718 9.3763943 0
-7.6808434 8.8279896 9.2362604 0
-7.3623691 9.0050974 9.3887844 0
-0.071449876 9.1033001 9.2230053 0
0.17981447 8.9898701 9.3628941 0
7.4039941 8.9822283 9.3890696 0
7.6586452 8.984498 9.4220543 0
14.742057 9.015275 9.3348494 0
14.896605 8.9524307 9.3864021 0
24.955347 9.0332594 9.403779 0
-24.958855 9.4319077 9.3485823 0
-14.886583 9.3450994 9.4232445 0
-14.786498 9.2374048 9.4563484 0
-7.6489506 9.4387293 9.2177267 0
-7.3386927 9.4008245 9.3869143 0
-0.049931943 9.31738 9.2393055 0
0.16388787 9.3586884 9.4306631 0
7.4128022 9.3217611 9.3430233 0
7.7174253 9.3337708 9.3302965 0
14.738652 9.3283234 9.3302803 0
14.943294 9.3974781 9.3086615 0
15.240673 9.2000504 9.2659626 0
24.94879 9.4379711 9.4054308 0
-24.943588 9.7540293 9.3501387 0
-14.907702 9.7773399 9.4026079 0
-14.74004 9.6797543 9.3984709 0
-7.6293368 9.8334913 9.2879143 0
-7.3535314 9.8142309 9.4375191 0
-0.12579626 9.7873716 9.2470112 0
0.1588549 9.7487106 9.4178391 0
7.3510695 9.8053379 9.3682022 0
7.6951971 9.7604609 9.3311996 0
14.762512 9.7927637 9.4297962 0
14.933082 9.8194895 9.4058275 0
15.217182 9.7874737 9.2198811 0
24.939367 9.8009949 9.3702021 0
-24.933575 10.20352 9.3553209 0
-14.883229 10.193408 9.4388838 0
-14.781407 10.023153 9.5662937 0
-7.6222358 10.125287 9.21523 0
-7.3326764 10.180722 9.470562 0
-0.14232147 10.274241 9.2402401 0
0.16726534 10.233235 9.3751221 0
7.405622 10.205678 9.3440599 0
7.6479921 10.159906 9.4139452 0
14.719207 10.244119 9.2416039 0
14.899517 10.23739 9.4019651 0
15.231662 10.162019 9.2850399 0
24.933462 10.192201 9.3650713 0
-24.976894 10.667105 9.3553467 0
-14.91003 10.591954 9.4164429 0
-14.753098 10.613904 9.4593706 0
-7.6165185 10.61058 9.2350254 0
-7.3721576 10.58766 9.3961401 0
-0.086983621 10.630049 9.2373009 0
0.19157149 10.610848 9.4201155 0
7.38835 10.542372 9.3516512 0
7.6559944 10.596492 9.2181177 0
14.74086 10.590022 9.3510246 0
14.946174 10.605686 9.3787775 0
24.933268 10.61467 9.3458862 0
-24.938694 10.993158 9.4113798 0
-14.865961 10.917433 9.4627275 0
-14.764827 11.132829 9.4329996 0
-7.6553545 10.950408 9.2686195 0
-7.3180327 11.023582 9.4095545 0
-0.0095075369 10.92922 9.267416 0
0.17716572 10.959253 9.4145536 0
7.3654695 10.96453 9.3432226 0
7.6682234 11.032545 9.5068159 0
14.756311 10.951636 9.3409691 0
14.943766 10.98086 9.3965445 0
24.908167 10.942364 9.3777485 0
-24.977251 11.408963 9.3641968 0
-14.862356 11.316083 9.4439621 0
-14.761656 11.542245 9.325634 0
-7.721745 11.451055 9.2328157 0
-7.3325248 11.398525 9.3877525 0
-0.19608378 11.358332 9.210825 0
0.16645707 11.423335 9.3392582 0
7.3204312 11.391953 9.329627 0
7.7302508 11.503778 9.3258123 0
14.732325 11.375263 9.3507099 0
14.932078 11.430959 9.3424311 0
24.950794 11.384706 9.3909073 0
-24.950327 11.78115 9.3631477 0
-14.877457 11.771462 9.4010639 0
-14.715311 11.712217 9.5782108 0
-7.3509564 11.782517 9.3852568 0
-0.15203142 11.833971 9.2126484 0
0.18596488 11.856379 9.4124994 0
7.4108772 11.835471 9.4007444 0
7.6583285 11.727843 9.2933931 0
14.739339 11.792611 9.4249821 0
14.922984 11.845854 9.3969145 0
15.208131 11.70072 9.2139206 0
24.941414 11.783288 9.3559904 0
-24.972931 12.148329 9.4327917 0
-14.918031 12.215431 9.4154463 0
-14.756001 12.198229 9.5890617 0
-7.6909943 12.0377 9.2537994 0
-7.3318691 12.205903 9.4435072 0
-0.09141624 12.062384 9.2507706 0
0.16587135 12.236051 9.3874149 0
7.3666711 12.136595 9.3952007 0
7.6982069 12.144364 9.4030905 0
14.745046 12.139957 9.3087101 0
14.923151 12.145101 9.383625 0
24.92956 12.20109 9.4257536 0
-24.946424 12.633163 9.3914318 0
-14.87854 12.601893 9.4504786 0
-7.3427572 12.628803 9.4202166 0
-0.13899677 12.61771 9.2139692 0
0.14202063 12.59268 9.3711834 0
7.3664432 12.55383 9.3632994 0
7.7278719 12.548998 9.2949991 0
14.74557 12.59977 9.3476706 0
14.957171 12.552286 9.4104614 0
24.934099 12.599029 9.3335962 0
-24.958113 13.060803 9.527935 0
-14.905838 12.975949 9.3813696 0
-14.727399 13.057148 9.4839039 0
-7.8118305 13.100283 9.2062817 0
-7.3505969 13.024081 9.4054813 0
-0.092954397 12.954914 9.2501621 0
0.15048189 13.047964 9.390007 0
7.3644037 12.972133 9.3926525 0
14.742735 13.036234 9.4254513 0
14.939345 13.033816 9.3349972 0
24.93372 12.98625 9.443552 0
-24.959637 13.297766 9.4111614 0
-14.917885 13.404744 9.4325762 0
-14.711121 13.265484 9.4439564 0
-7.7194633 13.366266 9.264595 0
-7.341301 13.433675 9.3876009 0
-0.1052781 13.575329 9.2584705 0
0.17437224 13.422185 9.3685827 0
7.4017186 13.414682 9.329319 0
7.7024698 13.36042 9.5607328 0
14.729428 13.449028 9.3691034 0
14.929378 13.423181 9.3443708 0
24.918129 13.420066 9.3535814 0
-24.931795 13.793951 9.4158239 0
-14.870178 13.737619 9.3800554 0
-7.6439161 13.79742 9.2887421 0
-7.3502622 13.775563 9.3563318 0
0.13722578 13.79019 9.4053535 0
7.1942291 13.937042 9.2607899 0
7.3832116 13.751898 9.4117708 0
7.7121854 13.665948 9.3542852 0
14.703553 13.799672 9.4545603 0
14.925469 13.754742 9.381525 0
15.225348 13.659676 9.2912073 0
24.927841 13.837294 9.3262358 0
-24.987299 14.266109 9.409647 0
-14.881757 14.121362 9.466608 0
-14.776523 14.291423 9.3278379 0
-7.6677256 14.344111 9.3682251 0
-7.3173008 14.175567 9.4001646 0
-0.085074544 14.19754 9.2643681 0
0.12693329 14.188338 9.3661823 0
7.3862028 14.218701 9.3677101 0
7.6489525 14.244228 9.2918901 0
14.757617 14.219312 9.425683 0
14.927152 14.259941 9.4392805 0
24.939621 14.181154 9.3717823 0
-24.960085 14.600616 9.4411774 0
-14.894101 14.669387 9.4472456 0
-14.720886 14.561005 9.5754509 0
-7.6423645 14.483614 9.2390509 0
-7.3237925 14.585546 9.4346218 0
-7.1913953 14.520353 9.3173618 0
-0.084061943 14.530133 9.2480898 0
0.14327903 14.567169 9.3304796 0
7.1968236 14.624326 9.3153286 0
7.4222679 14.572763 9.31812 0
7.77635 14.673681 9.364459 0
13.017843 14.789666 9.5921593 0
14.756644 14.692451 9.3440523 0
14.934339 14.505198 9.3776379 0
24.908083 14.607091 9.3413258 0
-24.908379 14.944188 9.351018 0
-24.686516 14.983336 9.4200993 0
-24.205595 15.045612 9.4071922 0
-23.720388 14.862083 9.3836288 0
-23.330029 15.031208 9.2681465 0
-22.977692 14.932608 9.401823 0
-22.204905 14.97382 9.3640137 0
-21.808022 14.990393 9.3178978 0
-21.539452 15.037565 9.5152225 0
-20.93325 14.919073 9.4109478 0
-20.579697 15.065238 9.4351521 0
-20.167332 14.982029 9.4860744 0
-19.797403 14.900637 9.4176483 0
-19.504669 15.057631 9.5174179 0
-19.020014 14.998601 9.3801355 0
-18.633709 14.91341 9.3459244 0
-18.323219 14.87046 9.3681145 0
-17.833797 14.970453 9.3942785 0
-17.475904 14.882366 9.4676409 0
-16.95005 14.951463 9.4545794 0
-16.677948 14.984385 9.4224224 0
-16.074005 15.021744 9.4205894 0
-15.861742 14.90822 9.3598022 0
-15.578689 15.011795 9.3184814 0
-14.864047 14.834888 9.3397598 0
-14.604406 14.95104 9.446167 0
-14.146297 14.97084 9.4626503 0
-13.809006 14.959329 9.3759279 0
-13.442437 14.968932 9.4010029 0
-12.997847 14.957689 9.369976 0
-12.53578 14.965926 9.360467 0
-12.213956 14.993833 9.4732809 0
-11.81442 14.919138 9.4279375 0
-11.380949 14.973412 9.4480524 0
-10.920234 14.905978 9.4062262 0
-10.542304 14.95311 9.4267435 0
-10.154675 14.967575 9.3585854 0
-9.7687597 14.958051 9.4058495 0
-9.3312531 14.950241 9.4230108 0
-8.9696789 14.965956 9.43466 0
-8.5625095 14.961941 9.3643713 0
-8.1912117 14.961864 9.3698463 0
-7.9034591 14.926433 9.2006264 0
-7.2560945 14.939873 9.4733276 0
-7.0054579 14.956887 9.4115963 0
-6.6084366 14.954815 9.4243574 0
-6.2421169 14.939164 9.3618832 0
-5.8006368 14.95579 9.4197721 0
-5.3988681 14.967576 9.3438835 0
-5.002028 14.947738 9.4218807 0
-4.6049867 14.973602 9.3988657 0
-4.2141733 14.955749 9.3949089 0
-3.8001099 14.954429 9.3942976 0
-3.3983874 14.960615 9.4072275 0
-3.0206277 14.967574 9.3747578 0
-2.5847535 14.961034 9.3970976 0
-2.1625228 14.95558 9.3819494 0
-1.8178993 14.949094 9.3608713 0
-1.4074751 14.960029 9.4684591 0
-0.97288328 14.956517 9.3849897 0
-0.6607092 14.948317 9.404335 0
-0.16955948 14.925975 9.2909393 0
0.27918813 14.944398 9.3953781 0
0.60299313 14.938872 9.425787 0
0.99689746 14.957601 9.4180355 0
1.4243292 14.940166 9.4343367 0
1.8221283 14.951548 9.4043598 0
2.1995752 14.948302 9.3716459 0
2.5573885 14.959157 9.3599691 0
2.9522142 14.94241 9.4025841 0
3.3594112 14.955963 9.4086952 0
3.7705479 14.938776 9.3897486 0
4.2068672 14.947949 9.4353008 0
4.6254997 14.94436 9.3991108 0
5.0159454 14.949687 9.3537045 0
5.4306331 14.943755 9.3635445 0
5.8038564 14.948822 9.3596125 0
6.1811905 14.945144 9.415802 0
6.5648494 14.929843 9.44909 0
6.9948239 14.946189 9.3896427 0
7.4085016 14.935826 9.354847 0
7.8766842 14.942749 9.3569002 0
8.2399158 14.952168 9.4132833 0
8.6862097 14.951624 9.3851042 0
9.0550909 14.943419 9.3933325 0
9.4469461 14.948856 9.399003 0
9.847373 14.956921 9.4196873 0
10.253813 14.935319 9.3981075 0
10.641734 14.946969 9.3899679 0
11.053273 14.949997 9.3792477 0
11.462617 14.926371 9.4212704 0
11.86722 14.947165 9.3478804 0
12.293616 14.952553 9.3796749 0
12.673432 14.950417 9.3658276 0
13.045085 14.953335 9.3501844 0
13.400454 14.957912 9.3759413 0
13.773729 14.956801 9.3860159 0
14.189197 14.956584 9.3638706 0
14.572169 14.932124 9.3969889 0
14.860588 14.950498 9.4092484 0
15.447185 14.954121 9.3362961 0
15.76496 14.935854 9.4041605 0
16.242151 14.959213 9.3524666 0
16.586229 14.970359 9.3778992 0
17.004292 14.968614 9.4421825 0
17.417889 14.949621 9.4325199 0
17.785337 14.973281 9.3797312 0
18.204885 14.98556 9.4204445 0
18.592884 14.921759 9.3929071 0
19.00592 14.967199 9.398284 0
19.383533 14.913969 9.4431162 0
19.747904 14.958726 9.3800898 0
20.163961 14.966621 9.3742094 0
20.613703 14.957699 9.4292364 0
21.01631 14.977127 9.3684034 0
21.458748 14.95025 9.3962975 0
21.716543 14.950368 9.4794216 0
22.18877 14.960027 9.4015026 0
22.597811 14.949579 9.3967075 0
22.983627 14.953965 9.4305935 0
23.450346 14.959916 9.4427452 0
23.810322 14.987042 9.3849745 0
24.279804 14.958437 9.3666811 0
24.614807 14.977733 9.4772253 0
24.90947 14.922853 9.447998 0
-23.379601 15.206033 9.494072 0
-24.531481 -14.80932 9.6166973 0
-24.05582 -14.856837 9.7737522 0
-23.795242 -14.871845 9.8339787 0
-23.28624 -14.813714 9.7143002 0
-23.047018 -14.983331 9.6600475 0
-22.515381 -14.961679 9.637845 0
-22.082497 -14.98576 9.6082973 0
-21.704287 -14.800504 9.7049599 0
-21.084774 -14.898497 9.7491541 0
-20.571342 -14.964086 9.7063408 0
-20.078377 -15.073413 9.7413282 0
-19.796597 -14.881017 9.7536449 0
-19.351513 -14.916349 9.7964058 0
-19.089149 -14.890155 9.7084579 0
-18.757277 -14.931739 9.7370214 0
-18.205305 -14.823957 9.6695738 0
-17.819288 -14.961387 9.7026472 0
-17.373951 -15.007105 9.6564093 0
-17.173504 -14.988802 9.6200829 0
-14.851776 -14.844065 9.706583 0
-14.546682 -14.902012 9.6918879 0
-14.256413 -14.859242 9.7137766 0
-13.885858 -14.989897 9.6705484 0
-13.394424 -14.925481 9.7063932 0
-12.932504 -15.003698 9.6504831 0
-12.461479 -14.880565 9.6811056 0
-12.188911 -14.909368 9.7262907 0
-11.734982 -14.972557 9.6849489 0
-11.336262 -14.908607 9.6313782 0
-11.098882 -14.899187 9.7120304 0
-10.451692 -14.932321 9.7352829 0
-10.156713 -14.934709 9.7003355 0
-9.8028955 -14.914417 9.689045 0
-9.2954636 -14.934966 9.6494417 0
-8.959445 -14.928646 9.6868973 0
-8.5999441 -14.920753 9.701376 0
-8.2764721 -14.957882 9.6749144 0
-7.2615056 -14.875744 9.6270342 0
-6.9528275 -14.8971 9.7015419 0
-6.7377281 -14.93868 9.6996202 0
-6.2491536 -14.938355 9.6574402 0
-5.6592746 -14.911203 9.7594271 0
-5.4208231 -14.905729 9.7224922 0
-4.9829211 -14.919583 9.6951723 0
-4.6041031 -14.937819 9.6916122 0
-4.2294068 -14.927889 9.7121191 0
-3.7126026 -14.939298 9.678751 0
-3.3611331 -14.930365 9.707366 0
-3.0564575 -14.89729 9.7373743 0
-2.6646802 -14.911701 9.7497683 0
-2.2749341 -14.929382 9.6842699 0
-1.8068749 -14.926346 9.6913834 0
-1.4062288 -14.935627 9.681859 0
-1.0153359 -14.946689 9.7108707 0
-0.77562189 -14.942545 9.6978922 0
0.28571856 -14.893338 9.6661596 0
0.61170173 -14.922937 9.6887569 0
1.0162002 -14.939103 9.71702 0
1.4277297 -14.925402 9.6924677 0
1.8467753 -14.929047 9.6807671 0
2.2261448 -14.942878 9.6771307 0
2.5944955 -14.912921 9.6816473 0
2.994823 -14.909442 9.6879368 0
3.4110608 -14.926634 9.7224789 0
3.8449364 -14.936141 9.6665907 0
4.2008047 -14.911198 9.692565 0
4.5937581 -14.922456 9.683919 0
5.0124259 -14.919725 9.6884003 0
5.4193101 -14.926334 9.699276 0
5.8579235 -14.929723 9.6677399 0
6.2222157 -14.924228 9.6886606 0
6.639854 -14.916142 9.708272 0
6.9764571 -14.926168 9.7096233 0
7.2521772 -14.934835 9.6707211 0
7.9291677 -14.916818 9.7479486 0
8.1336956 -14.885966 9.7535524 0
8.6226625 -14.934692 9.6955748 0
8.9760876 -14.911119 9.730051 0
9.376729 -14.909274 9.7360458 0
9.7835255 -14.936224 9.7122335 0
10.167966 -14.916634 9.7150908 0
10.550228 -14.924523 9.7004776 0
11.025015 -14.922315 9.6554785 0
11.393679 -14.907368 9.6625042 0
11.797892 -14.922789 9.6700706 0
12.174092 -14.919927 9.6919966 0
12.643646 -14.929017 9.670929 0
13.066014 -14.912953 9.6963434 0
13.455704 -14.937892 9.6617117 0
13.863517 -14.931695 9.6796379 0
14.223882 -14.921706 9.7335081 0
14.577898 -14.927126 9.7055378 0
14.884402 -14.92963 9.6259766 0
15.922935 -14.917777 9.7182455 0
16.285341 -14.940161 9.7068424 0
16.655478 -14.89112 9.7221813 0
16.924583 -14.910879 9.7204294 0
17.384584 -14.979715 9.7029667 0
17.86865 -14.922795 9.6816654 0
18.212416 -14.966248 9.6748457 0
18.556429 -14.924212 9.7766733 0
19.099216 -14.92008 9.7456903 0
19.36339 -14.876704 9.6796532 0
19.850618 -14.959966 9.6291389 0
20.237009 -14.941125 9.7046824 0
20.598911 -14.923617 9.6667452 0
20.996813 -14.923915 9.7394152 0
21.464157 -14.913355 9.6978207 0
21.897335 -14.8563 9.7134724 0
22.129623 -14.937799 9.7769012 0
22.592091 -14.944693 9.6664734 0
23.111763 -14.954875 9.6805124 0
23.407881 -14.950439 9.7110147 0
23.749586 -14.914076 9.6605558 0
24.195965 -14.928256 9.7147198 0
24.61054 -14.87865 9.720355 0
24.868509 -14.855919 9.661335 0
-24.898966 -14.577713 9.7350988 0
-24.157837 -14.461025 9.8576126 0
-23.813637 -14.540752 9.7833376 0
-23.267513 -14.799501 9.7601643 0
-22.763885 -14.55571 9.6719818 0
-21.926405 -14.58334 9.8019953 0
-21.417946 -14.584152 9.7806044 0
-20.932594 -14.786904 9.8863907 0
-20.541859 -14.537012 9.926096 0
-20.193304 -14.628515 9.7378273 0
-19.903343 -14.593096 9.7470303 0
-19.561607 -14.569881 9.9130898 0
-19.109816 -14.536915 9.7830191 0
-18.694515 -14.512568 9.7740889 0
-18.141151 -14.709423 9.672678 0
-14.949863 -14.560194 9.8412409 0
-14.465292 -14.58448 9.7314758 0
-14.070234 -14.620063 9.6813507 0
-13.710866 -14.558948 9.7469711 0
-13.363976 -14.599194 9.805582 0
-13.010402 -14.612219 9.8542099 0
-12.600184 -14.61719 9.7655611 0
-12.262855 -14.561438 9.7402172 0
-11.74191 -14.585952 9.7583971 0
-11.429821 -14.530329 9.785511 0
-10.899384 -14.579025 9.803936 0
-10.646414 -14.659556 9.7749691 0
-10.212741 -14.586045 9.7570429 0
-9.7724848 -14.583998 9.788106 0
-9.413084 -14.630404 9.7811356 0
-9.0960569 -14.550285 9.7953997 0
-8.6050167 -14.665489 9.7796106 0
-7.3128295 -14.583846 9.6950064 0
-7.0319757 -14.560421 9.7661037 0
-6.5529685 -14.555298 9.8307314 0
-6.1843534 -14.555377 9.7699299 0
-5.8621769 -14.588609 9.7729626 0
-5.3993258 -14.655738 9.7489967 0
-4.9966106 -14.553025 9.799305 0
-4.6555715 -14.500071 9.7996902 0
-4.2392244 -14.576774 9.7852802 0
-3.7592359 -14.585058 9.7851791 0
-3.3727403 -14.579928 9.8105412 0
-2.9793079 -14.59615 9.7857399 0
-2.5878208 -14.563651 9.7899113 0
-2.2322493 -14.629033 9.8013487 0
-1.7979169 -14.603459 9.7851124 0
-1.3965608 -14.556834 9.8043766 0
-0.9998976 -14.574222 9.7959385 0
-0.71055394 -14.541957 9.7928247 0
0.26567841 -14.602941 9.6981325 0
0.59664524 -14.57733 9.7676392 0
0.96429616 -14.572657 9.8055487 0
1.4454989 -14.60436 9.7820749 0
1.8430349 -14.527411 9.8061199 0
2.151484 -14.60683 9.7919455 0
2.591908 -14.601143 9.7632074 0
3.0335453 -14.606825 9.7814217 0
3.3919928 -14.594395 9.7443676 0
3.8118947 -14.611729 9.7478495 0
4.2105608 -14.599572 9.7805328 0
4.5928283 -14.549693 9.7791882 0
5.0088253 -14.606883 9.7698708 0
5.4351978 -14.587709 9.7830849 0
5.8266249 -14.553121 9.8026171 0
6.2552533 -14.536006 9.8023291 0
6.6038227 -14.564054 9.7916069 0
6.9605908 -14.566098 9.8000298 0
7.2624955 -14.604503 9.7069025 0
7.8097849 -14.650972 9.722868 0
8.2319593 -14.656728 9.750308 0
8.5925789 -14.570814 9.7827854 0
9.0214729 -14.583533 9.7964935 0
9.3966656 -14.547138 9.7879639 0
9.8133364 -14.567022 9.7846127 0
10.203402 -14.598587 9.7711983 0
10.612246 -14.601591 9.7751064 0
10.977905 -14.605552 9.7721949 0
11.353861 -14.541265 9.799654 0
11.793744 -14.529214 9.7836695 0
12.230312 -14.63866 9.7496614 0
12.636622 -14.581819 9.7662945 0
13.00353 -14.552389 9.7855549 0
13.397774 -14.599765 9.7892828 0
13.71986 -14.539569 9.7988787 0
14.190186 -14.571686 9.7793245 0
14.602926 -14.597397 9.7648678 0
14.862188 -14.60009 9.7327042 0
15.559042 -14.507904 9.799469 0
15.881719 -14.581463 9.7615442 0
16.224295 -14.576054 9.7271032 0
16.659637 -14.650472 9.7830477 0
17.0166 -14.573356 9.7856302 0
17.3878 -14.615778 9.7822952 0
17.721342 -14.624202 9.7524939 0
18.230185 -14.62612 9.790328 0
18.650517 -14.615841 9.7878389 0
19.002966 -14.666308 9.742281 0
19.405823 -14.575727 9.7918987 0
19.801161 -14.652834 9.8091431 0
20.140436 -14.475505 9.8048983 0
20.600403 -14.618828 9.7786465 0
21.019056 -14.549062 9.8401995 0
21.344086 -14.592499 9.7999544 0
21.858438 -14.636487 9.781476 0
22.241802 -14.541376 9.8117094 0
22.61764 -14.593257 9.8238201 0
22.890869 -14.588265 9.8576164 0
23.466757 -14.526211 9.7178288 0
23.83099 -14.660855 9.7861242 0
24.317995 -14.593706 9.7940922 0
24.583746 -14.583074 9.7784853 0
24.888479 -14.592201 9.8079119 0
-24.994839 -14.121918 9.6448326 0
-24.76199 -14.041919 9.9793968 0
-24.214514 -14.073039 9.8380527 0
-23.664463 -14.358137 9.8789768 0
-22.286474 -14.049582 9.720993 0
-21.694387 -14.259347 9.8005476 0
-21.494762 -14.386264 9.936573 0
-21.087463 -14.096498 9.936554 0
-20.573109 -14.18922 9.8451385 0
-20.17326 -14.170368 9.7482071 0
-19.970203 -14.078252 9.9418945 0
-19.314789 -14.122769 9.8450222 0
-18.966085 -14.204473 9.8804588 0
-18.559391 -14.001635 9.8076134 0
-18.253149 -14.025702 9.9688797 0
-17.847935 -14.111969 9.7655334 0
-17.512159 -14.20038 9.9007292 0
-15.282971 -14.157333 9.7820635 0
-15.115881 -14.063364 9.9608059 0
-14.737195 -14.206615 9.6778603 0
-14.024853 -14.102308 9.7711754 0
-13.87003 -14.158248 9.8613367 0
-13.416873 -14.145885 9.8592672 0
-13.09819 -14.210964 9.8165636 0
-12.681938 -14.182777 9.782341 0
-11.874367 -14.137867 9.8946085 0
-11.419276 -14.169301 9.8790722 0
-10.994422 -14.253068 9.7904158 0
-10.452995 -14.09641 9.8222332 0
-10.211328 -14.180664 9.868576 0
-9.8635302 -14.194343 9.8542719 0
-9.4862719 -14.16538 9.8747044 0
-8.9717369 -14.178142 9.8503675 0
-8.5942564 -14.325518 9.8395433 0
-7.3535061 -14.189438 9.7829628 0
-7.0648513 -14.194356 9.8051758 0
-6.5817299 -14.187065 9.8334208 0
-6.1686463 -14.166082 9.8616486 0
-5.8004098 -14.134354 9.8910637 0
-5.4148879 -14.197986 9.8537207 0
-5.0133939 -14.194459 9.8249273 0
-4.6198654 -14.213165 9.8319683 0
-4.1875362 -14.164795 9.8725958 0
-3.7870972 -14.136117 9.8538542 0
-3.393893 -14.154783 9.8620014 0
-3.0044632 -14.158264 9.85707 0
-2.6211357 -14.150403 9.8496485 0
-2.1418178 -14.210767 9.8552847 0
-1.8977498 -14.197873 9.8373079 0
-1.4711608 -14.176513 9.8452396 0
-0.99674851 -14.205691 9.8612747 0
-0.66898984 -14.195808 9.8653517 0
-0.064980507 -14.077805 9.8704338 0
0.25506756 -14.164028 9.7726364 0
0.62642056 -14.209029 9.8254576 0
1.057114 -14.220141 9.8182268 0
1.4348974 -14.203989 9.814682 0
1.7978948 -14.175296 9.8579645 0
2.2270296 -14.170485 9.8256674 0
2.5631669 -14.195629 9.8446798 0
2.9683011 -14.199466 9.8366451 0
3.4547832 -14.15268 9.8587332 0
3.8451855 -14.138336 9.8528585 0
4.2210407 -14.187016 9.8558874 0
4.6543107 -14.20549 9.8513021 0
5.0403476 -14.206188 9.8428707 0
5.4473338 -14.185565 9.8478174 0
5.8086071 -14.204708 9.839735 0
6.1797152 -14.225741 9.8243351 0
6.6150918 -14.219563 9.8325233 0
7.0476546 -14.189913 9.8209763 0
7.300045 -14.18164 9.6957436 0
7.8400159 -14.283653 9.7824526 0
8.1496515 -14.273437 9.8276548 0
8.5585651 -14.216977 9.8483696 0
8.9917917 -14.217911 9.8439837 0
9.4163465 -14.199402 9.8152094 0
9.8368464 -14.221437 9.8314381 0
10.189904 -14.204959 9.8560009 0
10.545984 -14.19681 9.8371086 0
10.992919 -14.19523 9.8423014 0
11.369062 -14.188372 9.8509207 0
11.785716 -14.189327 9.8662348 0
12.178649 -14.139136 9.8755016 0
12.567781 -14.117463 9.8855791 0
13.001136 -14.14989 9.8588781 0
13.411791 -14.157726 9.8627977 0
13.794854 -14.172573 9.8504095 0
14.220876 -14.140777 9.8679962 0
14.641171 -14.17089 9.8338223 0
14.964112 -14.127248 9.9256124 0
15.734308 -14.090109 9.881691 0
16.166348 -14.109879 9.8640556 0
16.604092 -14.175085 9.8876753 0
16.986023 -14.218598 9.8886518 0
17.381733 -14.227526 9.85849 0
17.779842 -14.212128 9.8580256 0
18.201185 -14.189992 9.8721104 0
18.618517 -14.216544 9.8141785 0
19.042534 -14.175436 9.8497543 0
19.54188 -14.20554 9.8174944 0
19.833916 -14.242499 9.8459587 0
20.262028 -14.242109 9.8817778 0
20.601763 -14.119145 9.9247465 0
20.940615 -14.213196 9.817915 0
21.315039 -14.213923 9.8478823 0
21.815536 -14.193128 9.8667994 0
22.231518 -14.144855 9.9129143 0
22.732655 -14.091932 9.9240742 0
23.056549 -14.234309 9.8641281 0
23.424417 -14.241154 9.9151373 0
23.828836 -14.150062 9.8696604 0
24.237665 -14.21804 9.8276863 0
24.705698 -14.267708 9.8592968 0
24.923832 -14.119523 9.7639914 0
-24.954361 -13.876926 9.7160187 0
-24.608013 -13.70809 9.8096704 0
-24.036472 -13.942746 9.9931583 0
-23.954268 -13.96176 9.8017044 0
-22.249414 -13.938051 9.840909 0
-21.84618 -13.667368 9.7843342 0
-20.933855 -13.75646 9.9519997 0
-20.620003 -13.839563 9.7567654 0
-19.510025 -13.663981 9.8943958 0
-19.015312 -13.934351 9.9816074 0
-18.481445 -13.679309 9.9644976 0
-17.698637 -13.846592 9.8819714 0
-15.479321 -13.759305 9.8436804 0
-14.976187 -13.793589 9.7245331 0
-14.219567 -13.731117 9.8679171 0
-13.813397 -13.611415 9.8633547 0
-13.34464 -13.899407 9.8134613 0
-12.898855 -13.628476 9.9741344 0
-12.55192 -13.901925 9.9544029 0
-12.127316 -13.823343 9.8556395 0
-11.81619 -13.87555 9.9169788 0
-11.428309 -13.897319 9.8689137 0
-10.876149 -13.939782 9.8848286 0
-10.579624 -13.811129 9.8631716 0
-10.227031 -13.797523 9.9311552 0
-9.8793058 -13.798518 9.9228668 0
-9.4036274 -13.82069 9.8772964 0
-8.9717731 -13.833725 9.9117355 0
-7.3510141 -13.794401 9.7700186 0
-7.0735221 -13.751488 9.9347067 0
-6.6257949 -13.765343 9.9202795 0
-6.22157 -13.826945 9.899292 0
-5.8007021 -13.752805 9.883481 0
-5.4168067 -13.762982 9.9292002 0
-5.0317025 -13.788361 9.9185429 0
-4.5978131 -13.771441 9.9292564 0
-4.1790252 -13.789768 9.9159107 0
-3.7359588 -13.787757 9.8834743 0
-3.4719992 -13.74128 9.9239416 0
-2.9842987 -13.720504 9.9364405 0
-2.5951288 -13.745426 9.8925285 0
-2.236207 -13.810972 9.8970985 0
-1.7742487 -13.804841 9.9198418 0
-1.4088651 -13.870639 9.8886919 0
-1.0524672 -13.869589 9.8904819 0
-0.72521639 -13.927341 9.8637733 0
-0.13213825 -13.875534 9.9544048 0
0.25249699 -13.799293 9.829999 0
0.6845811 -13.827662 9.8990154 0
1.0598912 -13.833772 9.8887625 0
1.4659815 -13.869 9.8926573 0
1.7942561 -13.830182 9.9036474 0
2.1916692 -13.801171 9.9160881 0
2.6305757 -13.811391 9.9053316 0
2.9897232 -13.781296 9.9246826 0
3.4263515 -13.759816 9.9430037 0
3.8400552 -13.74635 9.9470081 0
4.2332125 -13.778597 9.9173298 0
4.5732203 -13.805316 9.9523525 0
4.9976315 -13.83135 9.9056807 0
5.4221907 -13.783696 9.9277287 0
5.7574091 -13.832393 9.927043 0
6.1744647 -13.80539 9.8949184 0
6.6010642 -13.821722 9.910078 0
7.0129848 -13.78941 9.9011936 0
7.3569951 -13.690865 9.8706636 0
7.7940145 -13.786871 9.8463736 0
8.239254 -13.79329 9.9351168 0
8.6171684 -13.802313 9.9187918 0
9.0282202 -13.792139 9.9417028 0
9.435813 -13.793579 9.9354668 0
9.8055096 -13.838773 9.9054098 0
10.147672 -13.772531 9.9253531 0
10.556382 -13.816816 9.8984671 0
10.993788 -13.808194 9.9307384 0
11.387446 -13.773857 9.9583492 0
11.789825 -13.747486 9.9444132 0
12.192354 -13.78301 9.9467697 0
12.552531 -13.787656 9.9343367 0
13.004489 -13.732617 9.9406023 0
13.446054 -13.773493 9.938489 0
13.842977 -13.80328 9.9131489 0
14.194022 -13.831596 9.8932161 0
14.654471 -13.797389 9.8220978 0
14.935052 -13.846524 9.8046503 0
15.235039 -13.656408 9.8922243 0
15.998655 -13.668827 9.9145298 0
16.365925 -13.739813 9.9083242 0
16.580387 -13.799283 9.9523363 0
16.989178 -13.797302 9.9210176 0
17.357445 -13.802455 9.9174433 0
17.810297 -13.776809 9.8802328 0
18.279877 -13.804172 9.8951683 0
18.561663 -13.803665 9.8892975 0
18.980112 -13.776864 9.8970566 0
19.371054 -13.791471 9.9387941 0
19.727728 -13.865858 9.8859539 0
20.174616 -13.819656 9.8869486 0
20.60235 -13.783773 9.9450827 0
21.012579 -13.829494 9.8907881 0
21.354961 -13.694041 9.9537086 0
21.712286 -13.861028 9.8347902 0
22.233261 -13.814601 9.9137077 0
22.584599 -13.74087 9.945281 0
22.879753 -13.746485 9.9351492 0
23.309822 -13.829794 9.9197102 0
23.765909 -13.806534 9.8937778 0
24.125601 -13.779348 9.8945446 0
24.625937 -13.833126 9.9154119 0
24.920397 -13.681866 9.7732182 0
-24.930056 -13.396019 9.7967606 0
-24.552202 -13.547118 9.9682732 0
-24.345102 -13.55962 9.8333282 0
-23.264494 -13.397293 9.9974575 0
-22.694403 -13.481662 9.8665791 0
-21.353456 -13.497953 9.9637833 0
-20.959435 -13.3668 9.814127 0
-20.698956 -13.314978 9.8789635 0
-20.380363 -13.580429 9.9722128 0
-19.726049 -13.253152 9.9881124 0
-19.089661 -13.518661 9.990778 0
-18.713537 -13.336061 9.9628563 0
-17.883308 -13.494554 9.8649254 0
-17.355602 -13.575396 9.8684969 0
-15.645252 -13.324738 9.9732552 0
-15.467297 -13.313421 9.8337708 0
-14.804737 -13.467874 9.8337116 0
-14.492504 -13.240093 9.9905586 0
-14.334124 -13.443758 9.8912134 0
-13.037081 -13.246649 9.9727707 0
-12.542512 -13.416243 9.9497013 0
-12.262819 -13.467169 9.9053288 0
-11.848862 -13.446259 9.9107771 0
-11.276163 -13.39763 9.9663334 0
-10.980353 -13.387804 9.9259977 0
-10.631467 -13.401305 9.9494228 0
-10.191073 -13.45125 9.9008503 0
-9.7888098 -13.490652 9.9712658 0
-9.4288454 -13.482756 9.8936443 0
-8.9867401 -13.338528 9.9221859 0
-7.6310878 -13.274961 9.9796429 0
-7.3339348 -13.349766 9.7822933 0
-7.0298452 -13.413747 9.8969803 0
-6.6095314 -13.437831 9.9267006 0
-6.1857848 -13.435836 9.9260178 0
-5.6706476 -13.354868 9.9233646 0
-5.3375082 -13.368048 9.9534121 0
-4.9648132 -13.397967 9.9342613 0
-4.6238346 -13.352502 9.9494553 0
-4.196279 -13.361526 9.9548397 0
-3.6749468 -13.344974 9.9270763 0
-3.4548926 -13.362474 9.9691391 0
-3.0746078 -13.390692 9.9439907 0
-2.5928202 -13.344882 9.922493 0
-2.2673345 -13.384776 9.9682293 0
-1.7787658 -13.388555 9.9585447 0
-1.4190543 -13.425188 9.9459286 0
-1.0362029 -13.444294 9.9352732 0
-0.70168495 -13.452516 9.931488 0
-0.10105252 -13.398381 9.9236927 0
0.19128105 -13.36538 9.7904749 0
0.60528237 -13.426545 9.9375114 0
0.91498071 -13.41792 9.9412489 0
1.3382337 -13.447825 9.9601784 0
1.7910846 -13.418576 9.9604225 0
2.2136977 -13.413824 9.9722414 0
2.6074851 -13.471234 9.9707441 0
2.9875641 -13.531451 9.9556007 0
3.4729786 -13.476854 9.9605579 0
3.8628495 -13.485094 9.950079 0
4.2136879 -13.387732 9.9370117 0
4.5884085 -13.443723 9.9510012 0
4.9330034 -13.406675 9.9803934 0
5.3568916 -13.382977 9.9277477 0
5.8622522 -13.41327 9.9681692 0
6.2132354 -13.434326 9.9468222 0
6.5666423 -13.469502 9.9671526 0
7.0710773 -13.371195 9.9746351 0
7.4140587 -13.466469 9.787818 0
7.8114986 -13.513102 9.8959036 0
8.2341671 -13.354235 9.9492683 0
8.6542845 -13.376199 9.9315825 0
9.0580568 -13.354604 9.9701433 0
9.4653568 -13.3228 9.9468765 0
9.8468704 -13.473663 9.9337006 0
10.188713 -13.418514 9.9672337 0
10.598225 -13.438046 9.959506 0
10.980416 -13.42718 9.9403276 0
11.401838 -13.40497 9.9495831 0
11.789314 -13.425473 9.9474688 0
12.188806 -13.45492 9.9538212 0
12.624825 -13.416899 9.9450989 0
13.043432 -13.340596 9.9620943 0
13.423076 -13.358266 9.9526205 0
13.792511 -13.377652 9.953166 0
14.174425 -13.45155 9.9396753 0
14.572584 -13.407353 9.9064922 0
14.985547 -13.329201 9.8905659 0
16.151445 -13.298435 9.9339828 0
16.5221 -13.364104 9.9576864 0
16.977039 -13.559922 9.8987341 0
17.369282 -13.458951 9.944602 0
17.730835 -13.465069 9.9504395 0
18.029974 -13.497953 9.967 0
18.595495 -13.360154 9.9365778 0
19.052177 -13.422488 9.9438934 0
19.40073 -13.378113 9.9673939 0
19.855488 -13.393862 9.9498148 0
20.196215 -13.511925 9.9444532 0
20.978128 -13.41355 9.9419851 0
21.539564 -13.329891 9.9245911 0
21.741522 -13.364594 9.9464655 0
22.517324 -13.308831 9.9606762 0
22.999865 -13.371463 9.9535656 0
23.442816 -13.446017 9.9017477 0
23.707325 -13.372735 9.9695854 0
24.197044 -13.391919 9.9170361 0
24.628946 -13.496142 9.921751 0
24.906404 -13.416339 9.7768955 0
-24.965292 -12.96648 9.8335743 0
-24.661709 -13.115955 9.8521891 0
-22.921955 -13.131989 9.8619175 0
-21.42762 -12.99861 9.9088392 0
-21.006618 -12.889659 9.8968267 0
-20.169767 -12.877392 9.8731422 0
-19.981153 -12.885079 9.9924431 0
-18.942066 -12.990527 9.9618998 0
-18.227459 -13.016149 9.98526 0
-15.8933 -12.929413 9.9254322 0
-15.318377 -12.872638 9.9999752 0
-14.702621 -12.981888 9.8893232 0
-13.354433 -12.931791 9.9720592 0
-13.119095 -12.900407 9.9520025 0
-12.61481 -13.042053 9.9506702 0
-12.22678 -12.856665 9.9879942 0
-11.824044 -13.15048 9.9877071 0
-11.397573 -12.998105 9.9842854 0
-10.957497 -12.970137 9.9784126 0
-10.716963 -13.103088 9.9692116 0
-10.238898 -13.122619 9.9636707 0
-7.8246946 -12.958163 9.9715662 0
-7.2426958 -13.045467 9.7981043 0
-7.0397196 -13.104013 9.8889093 0
-6.5217943 -12.930966 9.9960499 0
-6.14182 -13.075566 9.9849815 0
-5.8334727 -12.988136 9.9689217 0
-5.4726524 -13.022041 9.9681711 0
-4.6216111 -13.008776 9.9645281 0
-4.0743055 -13.090356 9.9658709 0
-3.858197 -13.070229 9.9679918 0
-3.4293969 -13.099921 9.9547491 0
-2.9918411 -12.939928 9.9990654 0
-2.563484 -12.985748 9.9621983 0
-2.1783829 -13.062526 9.9721918 0
-1.7624435 -12.966281 9.9894781 0
-1.3627586 -13.088108 9.9693375 0
-0.32157421 -12.952339 9.9609756 0
0.19931984 -13.045238 9.6514807 0
0.53673267 -13.047823 9.9895811 0
0.96061993 -13.046435 9.9620895 0
1.4012618 -13.113308 9.9792557 0
1.9924221 -13.148561 9.9292011 0
2.2954054 -13.027566 9.9801941 0
2.6407995 -13.00807 9.9793224 0
3.0497522 -13.068851 9.9813833 0
3.4230301 -13.06148 9.9867277 0
3.9569156 -13.136719 9.9812975 0
4.5290008 -12.950015 9.9963484 0
4.9733949 -13.108585 9.987401 0
5.3096042 -13.168086 9.9692888 0
5.6673522 -13.192633 9.9841852 0
6.6039314 -13.092054 9.977108 0
6.9989753 -13.042068 9.9844942 0
7.2801008 -13.054812 9.7350922 0
7.6850328 -12.905901 9.8197403 0
8.1988611 -13.179226 9.9682388 0
8.4356155 -13.170264 9.9814482 0
8.9911919 -13.146877 9.9656048 0
9.3816128 -13.03821 9.9870863 0
9.9385071 -13.14858 9.9432468 0
10.173739 -13.125552 9.9781914 0
11.077383 -13.089787 9.9926529 0
11.532372 -13.134112 9.9878693 0
11.996036 -13.097493 9.9857283 0
12.257106 -13.070685 9.9856987 0
12.731709 -13.05227 9.9844265 0
13.021375 -12.970897 9.9859848 0
13.482699 -13.039091 9.9768639 0
13.786648 -12.935883 9.9922562 0
14.676598 -13.060698 9.8164673 0
14.813383 -12.96386 9.6875877 0
16.72468 -13.10672 9.9963074 0
17.020714 -13.128559 9.9848499 0
17.872353 -13.163263 9.9722633 0
18.164974 -13.080399 9.9777832 0
18.598808 -13.073141 9.9660921 0
18.835491 -13.018726 9.9769363 0
19.416281 -13.190053 9.9572306 0
19.836864 -13.140279 9.9599161 0
20.064377 -13.04546 9.9825726 0
20.463718 -13.057343 9.9959602 0
21.176466 -13.0217 9.9756336 0
21.552246 -13.157887 9.9774971 0
21.60598 -13.067698 9.9964333 0
22.722134 -12.898719 9.9498787 0
23.815693 -13.122284 9.9515944 0
24.009434 -12.8499 9.9841919 0
24.946369 -13.028255 9.749136 0
-24.93713 -12.584902 9.7803011 0
-23.355392 -12.748275 9.8994837 0
-21.748388 -12.663041 9.9794426 0
-21.405434 -12.502618 9.9338036 0
-19.168776 -12.643766 9.9620857 0
-16.178923 -12.582248 9.9926357 0
-13.578722 -12.581225 9.9725571 0
-12.449734 -12.508145 9.9885406 0
-11.467583 -12.63657 9.9965172 0
-7.3164339 -12.598692 9.6552715 0
0.19017085 -12.653029 9.6291866 0
7.1810718 -12.548851 9.6641903 0
7.2990046 -12.598349 9.6429863 0
7.6836567 -12.661325 9.6729279 0
14.277815 -12.793409 9.9919968 0
14.753988 -12.437634 9.6624374 0
15.284492 -12.781311 9.9874592 0
19.949932 -12.753959 9.9930496 0
24.064516 -12.641254 9.9434509 0
24.476425 -12.783343 9.9581203 0
24.921066 -12.537872 9.7630148 0
-24.950632 -12.165378 9.822526 0
-22.001661 -12.284511 9.9871674 0
-14.807285 -12.399135 9.7319508 0
-7.2911463 -12.085453 9.6438046 0
0.17142224 -12.256064 9.6461525 0
7.2978134 -12.249811 9.6811609 0
14.698798 -12.249303 9.6913576 0
14.824396 -12.10843 9.6651888 0
24.918392 -12.210364 9.67202 0
-24.965397 -11.701555 9.7819424 0
-14.854704 -11.875761 9.644145 0
-14.759283 -11.916415 9.6887531 0
-7.2462435 -11.738317 9.6632462 0
0.1706879 -11.753156 9.6441326 0
7.2991219 -11.795757 9.6750031 0
7.7252064 -11.824644 9.6314583 0
14.74445 -11.778047 9.693511 0
14.85112 -11.858644 9.6622152 0
24.921379 -11.822612 9.7863359 0
-24.968842 -11.417459 9.6874752 0
-14.908573 -11.337048 9.6193848 0
-14.768578 -11.488019 9.7157564 0
-7.2792134 -11.353425 9.6593828 0
0.22423029 -11.438532 9.6326027 0
7.2786927 -11.437254 9.659914 0
14.761732 -11.376951 9.675601 0
14.810256 -11.515319 9.6310253 0
24.938847 -11.425498 9.7779331 0
-24.948471 -11.06895 9.830493 0
-14.731321 -10.996588 9.6942844 0
-7.3322525 -10.977962 9.6404104 0
0.27126837 -11.039693 9.672658 0
7.2323246 -10.854908 9.7070656 0
7.6788292 -11.051184 9.635849 0
14.704453 -10.955173 9.6539564 0
14.81309 -10.802133 9.6601486 0
24.93692 -10.968055 9.8181667 0
-24.953321 -10.577993 9.8224812 0
-14.749215 -10.523719 9.6751852 0
-7.2981324 -10.598803 9.648325 0
0.21039812 -10.592723 9.6391363 0
7.2946739 -10.58242 9.6383686 0
7.7235565 -10.497818 9.625536 0
14.726098 -10.56308 9.6827993 0
14.855218 -10.690343 9.6209974 0
24.943613 -10.537377 9.8944359 0
-24.911589 -10.123796 9.7778749 0
-14.704567 -10.298438 9.6592712 0
-7.2788434 -10.111279 9.6627474 0
0.21357314 -10.192262 9.6591616 0
7.2523165 -10.202486 9.6698017 0
7.699851 -10.051212 9.6732531 0
14.761688 -10.241066 9.6749477 0
14.867796 -10.195701 9.6192207 0
24.923044 -10.219261 9.8267965 0
-24.967554 -9.8493805 9.8223162 0
-14.849483 -9.7086658 9.6127892 0
-14.753739 -9.9004021 9.7163935 0
-7.2810473 -9.7303476 9.6456881 0
0.21660928 -9.83708 9.6854019 0
7.255662 -9.8567181 9.6718245 0
7.689024 -9.8212252 9.6220989 0
14.738002 -9.8494997 9.646925 0
14.849942 -9.7178164 9.6251612 0
24.942669 -9.8020992 9.7678604 0
-24.963753 -9.4084377 9.7585583 0
-14.846686 -9.3309574 9.654295 0
-14.74723 -9.4261112 9.7067165 0
-7.2630095 -9.338479 9.6388512 0
0.24169102 -9.4904203 9.664917 0
7.242106 -9.4321165 9.7162743 0
7.6534634 -9.5866661 9.6184797 0
14.75801 -9.5096636 9.6339693 0
24.955324 -9.4054632 9.7373781 0
-24.980766 -9.0597696 9.8267193 0
-14.885037 -8.8546333 9.628624 0
-14.728532 -8.8363504 9.6974955 0
-7.2858009 -9.0339022 9.6400957 0
0.22596215 -9.0190306 9.6410332 0
7.2903748 -8.9618435 9.6212902 0
7.7032304 -9.0802107 9.6168976 0
14.728686 -8.9576206 9.6522188 0
14.820841 -9.0065594 9.6512222 0
24.940207 -8.9434385 9.8133659 0
-24.966679 -8.6098003 9.7880526 0
-14.800048 -8.5539131 9.6439333 0
-14.779381 -8.6877918 9.6979485 0
-7.2641668 -8.6388836 9.6937408 0
0.23900676 -8.6788082 9.6398115 0
7.2364855 -8.6400442 9.6780748 0
7.6590662 -8.7124701 9.6334066 0
14.755682 -8.5939884 9.6383286 0
14.859972 -8.5535774 9.6299191 0
24.96063 -8.5709667 9.7657261 0
-24.965038 -8.1429996 9.7908268 0
-14.918876 -8.3813267 9.6038704 0
-14.730225 -8.2352724 9.703681 0
-7.2803884 -8.1538029 9.7005997 0
0.20898989 -8.2824802 9.641305 0
7.3067946 -8.1943054 9.6253386 0
14.713485 -8.20893 9.6617041 0
14.816698 -8.2509136 9.6232681 0
24.952999 -8.1652126 9.7992535 0
-24.959026 -7.7202115 9.7875443 0
-14.768056 -7.7991042 9.6773043 0
-7.2513776 -7.8014855 9.6744509 0
0.19559105 -7.7707114 9.6535416 0
7.2444501 -7.8876052 9.6416655 0
7.696734 -7.9111428 9.6293697 0
14.748528 -7.9023237 9.6370754 0
14.814386 -7.7371349 9.6493511 0
24.95907 -7.8074479 9.7413168 0
-24.951454 -7.4910908 9.7859526 0
-14.811001 -7.4121981 9.6079922 0
-14.720669 -7.4345818 9.6988144 0
-7.2674761 -7.4119592 9.6700726 0
0.17590514 -7.4384146 9.6369143 0
7.2558417 -7.3774543 9.6354036 0
14.755222 -7.4617004 9.6679277 0
14.876285 -7.4410481 9.6033611 0
24.955742 -7.426394 9.8117332 0
-24.956656 -6.9593244 9.7814026 0
-14.740661 -6.9427242 9.6513901 0
-7.3006196 -6.936049 9.662241 0
0.23314238 -7.0266228 9.6436262 0
7.2413101 -6.9885659 9.6428537 0
14.740173 -7.1260862 9.6707249 0
14.84536 -7.0233288 9.6690979 0
24.950003 -7.010591 9.7948437 0
-24.975874 -6.5741119 9.7169914 0
-14.816392 -6.7384634 9.6027107 0
-14.775345 -6.6244335 9.658865 0
-7.2941332 -6.6395226 9.6604691 0
0.19522743 -6.587285 9.6164379 0
7.2536068 -6.6125202 9.6448946 0
14.768821 -6.7503691 9.6360626 0
14.847928 -6.6733308 9.6451263 0
24.943306 -6.634119 9.8026619 0
-24.953173 -6.2617412 9.7970381 0
-14.815814 -6.3142986 9.6637611 0
-14.752857 -6.1281366 9.6924944 0
-7.2560983 -6.2391005 9.6751385 0
0.19409513 -6.1490827 9.6342688 0
7.2962999 -6.234992 9.6173429 0
14.72083 -6.239573 9.6800165 0
14.815157 -6.2514982 9.6216927 0
24.942835 -6.1686969 9.7748213 0
-24.958008 -5.7424254 9.8047714 0
-14.86608 -5.8003302 9.6228333 0
-14.745313 -5.757421 9.6773167 0
-7.2645807 -5.7464514 9.63943 0
0.20658922 -5.8026805 9.6311493 0
7.2407055 -5.7643366 9.6178741 0
14.729849 -5.8705001 9.7486763 0
24.939865 -5.7939873 9.7697954 0
-24.971977 -5.3874583 9.8060293 0
-14.893869 -5.3180952 9.611268 0
-14.758614 -5.3731065 9.6486998 0
-7.2991624 -5.3462772 9.6458616 0
0.16566467 -5.4743528 9.614254 0
14.75633 -5.3986645 9.6659145 0
24.946653 -5.3916426 9.7540236 0
-24.97267 -4.9704309 9.7790022 0
-14.86367 -4.947619 9.6450672 0
-14.772388 -4.9499192 9.6272278 0
-7.259285 -4.8937163 9.6817617 0
0.20107365 -4.9598961 9.6370478 0
14.738513 -5.0677733 9.6400557 0
